ply
        format ascii 1.0
        element vertex 1546
        property float x
        property float y
        property float z
        property uchar blue
        property uchar green
        property uchar red
        end_header
17.244917 74.955815 434.087276 12 8 19
228.212762 15.509865 359.798813 153 153 147
46.599156 58.349216 291.027045 33 33 33
39.279583 -53.087455 300.685334 165 159 157
52.119058 32.216904 306.598043 117 136 143
82.112771 73.351181 309.537554 107 105 106
35.343507 -25.635806 317.104769 31 78 131
53.032613 -39.312604 318.651175 109 96 81
53.793949 -39.138716 318.773079 109 96 81
53.793949 -39.138716 318.773079 109 96 81
60.116518 34.804809 313.190794 96 90 88
61.016482 60.295081 312.136531 37 61 93
56.874174 -18.972827 318.015528 43 70 128
251.760149 40.177056 326.282716 37 81 55
-21.063825 36.819136 326.410198 99 94 89
56.633472 73.497838 318.169618 122 140 137
62.085289 -38.871706 326.204038 158 143 128
67.971110 87.690246 319.849849 93 73 39
67.357922 91.251713 319.691181 105 101 101
65.982187 -17.171821 329.163957 34 74 140
64.298439 -37.904081 331.354094 161 144 123
63.568962 -60.957950 333.437181 20 46 61
63.839364 -64.343864 334.700608 51 40 52
69.570225 44.016251 325.946212 146 142 135
69.890726 38.140884 326.859951 148 143 138
65.690863 -67.344278 337.591147 29 44 63
66.570914 -63.191235 337.802720 110 139 144
72.224689 66.260636 327.298498 45 83 69
70.471770 -24.416168 335.689759 65 81 71
69.601941 -35.188270 336.984372 121 107 97
68.425226 -59.577495 339.462256 33 38 49
73.338932 58.793914 330.183911 39 76 59
72.791046 22.520548 335.162640 31 69 55
73.876965 24.938512 334.865904 151 147 133
73.375094 -3.438391 337.506866 16 84 106
75.044078 60.009879 332.626915 130 148 139
71.633029 -61.900753 343.486786 59 40 44
74.481487 2.874778 338.246346 14 80 102
71.804738 -61.729997 344.316435 64 42 49
97.377503 77.650446 332.959318 140 148 150
97.377503 77.650446 332.959318 140 148 150
73.840892 -33.698726 343.227434 113 94 78
77.880347 73.359770 335.522866 110 136 124
75.110018 -1.770133 342.091584 62 134 153
75.110018 -1.770133 342.091584 62 134 153
75.503856 3.840257 342.438936 25 64 86
75.503856 3.840257 342.438936 25 64 86
76.370996 47.237822 339.298010 151 150 147
76.262838 29.400927 341.284370 162 152 150
77.032238 10.926142 343.121195 21 63 84
23.611854 -35.560641 403.156519 145 139 132
49.693701 69.078672 452.788830 134 133 125
72.491300 76.563942 458.049107 113 115 104
339.150882 30.739027 364.634132 35 41 40
339.150882 30.739027 364.634132 149 149 150
339.150882 30.739027 364.634132 62 56 67
339.150882 30.739027 364.634132 128 95 133
339.150882 30.739027 364.634132 128 95 133
339.150882 30.739027 364.634132 31 18 30
339.150882 30.739027 364.634132 11 49 82
339.150882 30.739027 364.634132 36 108 147
339.150882 30.739027 364.634132 156 142 132
339.150882 30.739027 364.634132 61 111 134
339.150882 30.739027 364.634132 128 100 97
339.150882 30.739027 364.634132 101 38 40
339.150882 30.739027 364.634132 119 85 126
339.150882 30.739027 364.634132 5 24 65
339.150882 30.739027 364.634132 21 22 30
339.150882 30.739027 364.634132 0 21 61
339.150882 30.739027 364.634132 122 117 112
339.150882 30.739027 364.634132 16 11 27
339.150882 30.739027 364.634132 25 20 52
339.150882 30.739027 364.634132 73 127 151
339.150882 30.739027 364.634132 73 91 108
339.150882 30.739027 364.634132 24 22 53
339.150882 30.739027 364.634132 28 27 94
339.150882 30.739027 364.634132 35 108 143
339.150882 30.739027 364.634132 142 145 130
339.150882 30.739027 364.634132 25 22 49
339.150882 30.739027 364.634132 21 17 18
339.150882 30.739027 364.634132 90 71 82
339.150882 30.739027 364.634132 128 86 132
339.150882 30.739027 364.634132 140 103 92
339.150882 30.739027 364.634132 11 13 52
339.150882 30.739027 364.634132 46 7 51
339.150882 30.739027 364.634132 159 145 141
339.150882 30.739027 364.634132 33 28 55
339.150882 30.739027 364.634132 103 33 48
339.150882 30.739027 364.634132 103 33 48
339.150882 30.739027 364.634132 163 148 147
339.150882 30.739027 364.634132 49 88 137
339.150882 30.739027 364.634132 129 117 108
339.150882 30.739027 364.634132 18 21 110
339.150882 30.739027 364.634132 71 61 59
339.150882 30.739027 364.634132 95 33 32
339.150882 30.739027 364.634132 12 18 18
339.150882 30.739027 364.634132 65 61 62
339.150882 30.739027 364.634132 131 131 131
339.150882 30.739027 364.634132 40 36 36
339.150882 30.739027 364.634132 119 117 111
339.150882 30.739027 364.634132 157 150 152
339.150882 30.739027 364.634132 161 158 155
339.150882 30.739027 364.634132 60 56 67
339.150882 30.739027 364.634132 35 41 40
-39.706182 -66.623670 126.473033 146 155 146
-53.052092 -69.064677 151.886153 146 155 146
-19.009842 -51.530510 185.029638 162 163 160
-38.334233 -12.860318 260.245323 147 149 143
-18.983310 -53.169733 291.737676 156 154 155
-15.966627 79.783642 306.950760 121 92 132
-13.390617 99.787980 309.100008 87 113 135
-13.325006 96.745867 309.246755 53 114 137
-13.280331 93.520582 309.468174 49 112 139
-13.919793 69.988436 310.637665 18 14 25
-13.321923 86.498362 310.071969 21 26 29
-12.003217 103.252792 310.170412 91 105 90
-12.476130 88.031083 311.139011 130 130 131
-13.139497 -5.715276 317.718363 144 136 149
-11.392850 92.208540 312.305927 13 48 75
-11.803664 72.807878 313.179016 42 108 137
-11.613136 67.710567 313.796234 147 138 140
-9.544028 -91.172022 328.789735 155 136 162
-9.910072 -47.920626 324.275041 156 117 106
-10.003912 70.266783 315.443873 22 27 43
-10.228737 -1.828401 320.697284 83 61 86
-6.670254 94.190073 317.560911 48 112 134
-7.348365 -47.054052 327.756882 112 43 54
-7.348365 -47.054052 327.756882 112 43 54
-7.902159 -57.660580 328.868246 96 57 80
-6.388623 96.688497 317.786336 55 112 142
-6.794411 76.184845 318.922591 0 25 63
-6.794411 76.184845 318.922591 0 25 63
-6.571789 -53.915691 329.489112 50 39 51
-5.608445 98.531210 318.737936 30 70 103
-5.798282 -51.325989 330.074787 168 160 153
-5.612667 -19.284797 327.859974 169 155 151
-3.813818 97.698104 320.635819 57 114 144
-4.760848 -43.690339 330.791569 46 36 41
-3.950401 73.878980 322.142482 38 113 150
-3.950698 83.349550 321.643710 40 115 150
-3.950698 83.349550 321.643710 40 115 150
-4.269386 -2.988613 328.008032 161 150 152
-4.017162 -11.396921 328.769636 161 151 156
-4.021686 -49.103275 332.037020 47 34 48
-4.021686 -49.103275 332.037020 47 34 48
-2.387665 101.803041 321.532750 27 32 53
-2.595724 95.703441 322.211599 21 61 94
-3.052782 -13.536391 330.041790 28 22 51
-3.052782 -13.536391 330.041790 28 22 51
-2.740657 36.576015 326.492882 39 30 87
-2.164763 61.224085 324.925256 132 89 138
-1.631953 92.542255 323.230743 19 43 65
-2.087140 -58.856004 334.638858 115 60 63
-2.052156 -52.011031 334.138012 167 157 148
-2.052156 -52.011031 334.138012 167 157 148
-1.476371 -46.543461 334.005189 164 157 147
-1.955259 55.806452 326.209450 28 16 33
-1.963909 -11.665750 331.285501 30 22 47
-1.181364 82.356465 324.768066 8 39 65
-1.181364 82.356465 324.768066 8 39 65
-1.265438 -9.516874 331.656718 157 152 156
-0.533705 -13.476056 332.778144 160 153 174
-0.017196 -54.210269 336.277366 44 34 44
-0.017196 -54.210269 336.277366 44 34 44
0.540897 88.834894 325.765443 29 33 38
0.111387 52.538109 328.422856 81 96 122
0.111387 52.538109 328.422856 81 96 122
0.498043 84.833103 326.331592 16 34 64
0.511025 1.238141 333.004928 54 95 153
2.067199 -56.417674 338.831234 169 156 150
3.037420 74.420422 329.576278 43 115 147
3.330336 45.537528 333.010721 78 96 126
4.287808 -14.944988 337.878990 106 70 70
4.868530 65.441436 332.261562 80 95 130
4.801642 -55.739552 341.452885 53 46 48
4.985218 -12.618181 338.404393 167 150 156
4.985218 -12.618181 338.404393 167 150 156
4.959749 -36.224601 340.346742 151 112 108
5.564685 61.643076 333.371592 79 96 129
5.278620 40.770796 334.926581 128 90 124
5.972951 75.812989 332.558537 0 22 61
6.415259 77.750099 332.756114 17 26 44
6.884990 50.190884 335.428405 76 101 118
7.296591 98.840731 331.811261 22 54 84
7.971281 97.008079 332.035518 54 112 145
7.564089 103.352332 331.563330 94 94 95
7.074655 -24.686038 341.278791 28 26 43
6.853253 -49.852967 343.137312 36 34 40
7.287117 48.189834 336.090350 16 20 46
7.302355 -4.405429 340.079403 92 82 92
8.014786 71.216935 334.553027 17 25 45
7.932024 66.207081 334.974384 20 23 44
8.005539 -53.091800 344.397616 169 158 159
8.616613 101.907516 332.837701 15 29 53
9.095515 74.320149 335.373068 37 109 141
9.095515 74.320149 335.373068 37 109 141
9.041728 86.667550 334.408116 118 116 110
8.955446 -0.879124 341.240692 163 153 144
9.370114 44.824535 338.037086 85 101 131
9.676275 68.872398 336.325336 109 100 89
9.676275 68.872398 336.325336 109 100 89
10.384855 72.925818 336.523342 43 108 133
9.977765 88.020372 335.274172 121 119 105
10.315505 55.388623 338.270164 78 98 132
10.182917 -54.082590 346.472764 116 48 56
10.678595 103.420961 334.529161 79 87 80
10.678595 103.420961 334.529161 79 87 80
46.200526 -38.771188 347.330213 164 157 147
10.474009 -47.349894 346.240902 166 162 150
11.063088 100.103688 335.045242 44 109 136
11.343323 -15.689926 344.507647 169 156 150
11.156942 -24.481156 345.163441 150 141 123
11.226533 -50.951850 347.205901 172 160 151
12.240674 40.547216 340.771103 41 26 82
12.169905 48.834032 340.111828 12 17 28
11.712957 56.846178 339.467359 82 101 129
12.115437 77.268791 337.953496 16 23 32
12.298280 71.372861 338.643074 16 20 20
12.590478 67.281932 339.092493 26 18 23
12.887256 -44.482636 348.298740 44 31 45
12.887256 -44.482636 348.298740 44 31 45
14.712699 55.337268 342.018151 21 19 62
14.159222 -49.130753 349.599910 37 31 37
15.312687 51.772094 342.572689 86 98 127
15.050060 -22.335154 348.339558 99 85 102
15.788549 44.312468 343.820333 80 126 161
16.170558 81.187558 341.197133 132 87 141
15.972197 -38.251439 350.405002 110 40 48
16.159096 104.610407 339.546204 22 21 18
15.658168 -31.248802 350.412583 150 113 111
17.188451 57.838792 343.989801 82 96 125
18.403219 -13.071027 350.483274 104 68 68
18.526766 -20.526752 351.086926 95 82 96
18.756360 53.134114 345.689607 20 18 54
18.756360 53.134114 345.689607 20 18 54
18.755205 41.689533 346.796155 16 25 96
19.882461 -48.552939 354.245090 172 162 153
19.882461 -48.552939 354.245090 172 162 153
20.328064 94.563347 343.421078 19 28 46
20.578560 81.895715 344.764400 32 16 38
22.382909 77.240437 345.945644 136 88 143
21.559221 96.119386 344.164252 98 99 96
21.565849 92.919517 344.596505 71 95 108
22.243874 96.456099 344.605160 84 93 84
22.243874 96.456099 344.605160 84 93 84
23.354062 43.845043 349.888945 121 91 127
23.261017 -8.729095 354.000545 32 22 47
24.053539 -35.619837 356.294584 162 138 131
25.052777 -10.814061 355.427957 145 115 125
57.460189 79.371661 348.856354 127 79 134
25.596461 96.045184 346.584392 74 93 87
25.071165 -10.578939 356.068254 145 115 125
25.828791 98.826730 346.829844 84 78 71
25.725037 -48.270962 358.734345 44 39 43
-1.581093 101.097918 346.283054 14 32 62
27.870274 -43.314266 359.697986 51 43 48
27.870274 -43.314266 359.697986 51 43 48
28.141457 92.833716 349.454761 49 83 101
29.678783 -34.816846 360.582566 173 156 148
29.237908 98.651600 349.559903 119 120 117
31.393886 40.912235 356.494570 53 114 153
31.348148 95.930409 351.055956 89 92 84
31.736061 -38.958481 362.313390 106 45 52
33.281398 -31.511927 362.669969 115 50 57
58.289111 79.966468 354.306722 127 79 134
58.289111 79.966468 354.306722 127 79 134
34.677914 92.554647 353.171873 48 87 104
33.544016 -52.155858 364.699626 51 40 42
33.544016 -52.155858 364.699626 51 40 42
36.570904 -12.735759 363.654375 63 62 102
36.579883 -21.471484 364.394498 168 160 153
36.579883 -21.471484 364.394498 168 160 153
36.471456 -44.733515 365.878725 164 157 147
36.471456 -44.733515 365.878725 164 157 147
36.292493 -49.778011 366.245103 170 162 155
38.442755 -27.459633 366.096807 156 120 115
40.724817 -7.422798 366.177011 162 154 147
41.373822 -50.786668 369.144535 52 41 48
42.207882 -36.893240 369.008183 109 47 57
43.092725 67.631841 361.422038 124 143 150
59.091246 80.434382 359.603572 127 79 134
59.091246 80.434382 359.603572 127 79 134
43.820381 -0.343448 367.566609 2 12 41
42.551565 -47.374386 369.750381 165 160 150
45.726374 3.172538 368.393564 25 41 105
43.972114 -51.583689 370.897961 170 153 145
47.491628 70.370698 362.655234 53 27 73
46.769065 56.406164 364.221764 19 46 111
45.223603 -41.455489 370.837593 35 31 37
45.223603 -41.455489 370.837593 35 31 37
46.419343 1.179652 369.016504 19 22 64
46.142659 -38.767818 371.361828 39 36 40
46.810430 -44.272053 372.123241 37 32 36
46.664250 -49.714899 372.324848 45 33 43
49.251410 26.797628 368.582821 13 13 91
48.928615 -37.398580 372.785854 164 157 147
50.059748 -34.356555 373.155713 111 41 49
50.875789 6.039802 371.203089 164 151 145
49.416187 -46.324781 373.597503 174 156 156
50.478357 95.159793 362.554622 88 73 72
52.145737 -8.183863 372.869825 0 21 70
54.750896 38.493475 369.603133 147 146 143
50.730950 97.783035 362.690234 107 105 99
51.859736 -38.402152 374.555516 53 35 43
51.841164 -44.592673 374.794054 166 154 145
55.316085 76.405990 365.958190 134 86 141
55.307049 9.702081 373.312664 22 15 72
52.167487 -66.249770 376.020074 141 153 155
57.044232 7.971878 374.225783 150 141 136
58.172786 0.825249 375.532579 8 44 103
57.038397 91.820866 366.183329 37 76 107
58.990264 24.749872 374.171233 118 89 115
56.254059 -55.051804 377.625299 168 152 140
58.261919 -26.139331 377.127075 147 116 110
60.986048 -37.255934 377.779341 22 20 21
60.356474 -3.899163 376.823187 0 20 63
59.180182 -42.652711 378.403854 159 149 140
61.114031 5.552351 376.563168 12 20 61
60.628784 81.362408 369.579339 127 79 134
60.628784 81.362408 369.579339 127 79 134
66.475564 16.661254 377.450943 18 27 92
60.191405 -79.599929 380.417895 70 40 30
65.142244 81.215566 371.716785 39 13 45
65.142244 81.215566 371.716785 39 13 45
67.984307 3.775547 379.857278 161 149 145
65.060461 101.281095 368.846297 13 21 23
66.571218 -37.480658 381.456661 37 30 39
69.270730 25.059456 378.776097 130 91 119
68.008482 -34.883150 381.757236 159 153 141
66.508961 92.621636 370.756936 15 23 25
68.369484 -41.692615 382.561278 35 26 28
69.394034 -39.290956 382.980776 164 155 144
71.296090 59.799081 376.719761 113 123 130
68.829566 94.357222 371.751881 97 93 81
68.829566 94.357222 371.751881 97 93 81
68.506271 -73.546356 383.657527 107 88 91
70.944643 91.073459 372.692490 21 21 15
71.833980 -33.758277 383.721566 103 33 41
71.833980 -33.758277 383.721566 103 33 41
70.908272 97.135037 371.847463 26 22 22
80.552578 -0.132904 385.655904 128 135 139
90.874392 89.024884 380.628181 132 134 128
111.224771 39.096850 394.702268 145 145 139
-156.800079 -94.943494 489.083672 45 68 97
121.001589 -50.460148 419.636393 53 75 102
-29.534763 63.162649 297.000456 28 36 29
-26.300386 -62.023163 312.450314 168 167 164
-31.396008 104.124105 404.608727 26 31 27
-31.396008 104.124105 404.608727 26 31 27
-32.924435 -4.346658 422.738075 129 136 145
-21.846035 -76.720458 314.677453 64 103 144
-21.846035 -76.720458 314.677453 64 103 144
-22.314842 -51.520628 317.113853 69 61 72
-17.375402 84.066373 307.605171 20 20 20
-17.368160 76.313859 308.360839 125 83 134
-16.152291 102.653801 307.642484 21 26 22
-16.152291 102.653801 307.642484 21 26 22
-16.529740 78.340966 308.890557 123 83 138
-14.117306 87.616760 310.978341 20 27 23
-12.951349 -54.862642 323.547435 157 121 103
-11.683554 94.188505 313.305855 1 57 95
-11.683554 94.188505 313.305855 1 57 95
-11.869194 66.787511 315.134716 150 146 134
-10.251342 69.351906 316.581941 25 26 47
-8.765461 95.783681 315.984941 57 109 145
-8.779981 67.534071 318.394923 94 85 80
-8.242025 -57.292569 328.507280 87 58 71
-7.032448 84.600204 318.846369 0 25 60
-7.006639 75.463486 319.775462 0 21 60
-6.984235 67.263997 320.381284 19 15 21
-6.984235 67.263997 320.381284 19 15 21
-5.739756 -63.384628 331.747627 128 76 78
-5.441742 -57.984275 331.677175 100 56 75
-4.694888 70.074290 322.641921 20 22 41
-4.590195 -5.843587 328.459525 88 63 93
-4.140281 82.732016 322.095752 36 109 146
-3.065129 -13.939379 330.542541 31 23 41
-3.065129 -13.939379 330.542541 31 23 41
-2.151362 -52.240580 334.365630 163 157 150
-1.421158 -23.168470 332.682252 85 56 89
-1.303312 81.901842 324.991679 0 23 57
0.173199 103.370500 324.787021 88 93 89
0.067943 52.008742 328.339624 79 95 125
0.348181 96.671820 325.762844 44 106 135
1.224529 -18.944182 334.936285 172 159 158
1.830454 92.577434 327.389312 12 46 83
1.904938 -5.106408 334.483171 162 151 145
2.166182 103.301561 326.873469 85 92 83
3.605763 88.117820 329.125571 147 138 139
3.791136 57.041675 331.712055 72 98 125
4.306597 -45.017532 339.913511 165 153 149
4.306597 -45.017532 339.913511 165 153 149
4.352233 -15.630573 337.678385 98 64 66
4.513476 -9.693021 337.380338 160 150 148
4.816937 70.529753 331.622553 27 21 39
5.131117 68.498462 332.122731 31 18 37
5.561640 36.706212 335.201693 64 119 154
6.062153 23.858735 338.091207 43 126 159
6.236165 89.977777 331.430793 31 27 51
6.649401 -8.777519 339.317989 54 48 82
6.858604 49.876323 335.088181 85 96 122
7.127642 -12.522087 339.934015 166 153 147
7.009874 85.588634 332.488823 156 140 135
8.888725 -7.365206 340.480995 78 72 106
9.119243 74.454367 335.243368 44 106 147
9.119243 74.454367 335.243368 44 106 147
9.119243 74.454367 335.243368 44 106 147
9.237197 77.600634 334.839344 16 27 53
9.237197 77.600634 334.839344 16 27 53
9.689020 68.953109 336.208987 109 105 105
10.871856 104.176092 334.682345 84 82 76
13.231897 -45.844400 347.698116 56 35 44
15.655686 -5.142030 346.840620 74 69 101
15.465258 99.979889 338.749290 103 101 89
15.465258 99.979889 338.749290 103 101 89
16.012169 97.246802 339.400434 88 104 102
18.558593 -14.327721 349.709105 105 70 75
19.234414 -40.001658 352.205539 195 155 162
19.411425 -27.106193 351.404643 153 137 127
19.872698 43.215507 346.917892 119 94 129
19.584206 72.426039 344.052315 52 18 66
20.439896 -50.424927 353.822827 170 162 155
21.007347 -13.513698 351.576138 167 152 151
20.503175 98.508900 342.858958 37 33 33
20.624383 95.817286 343.109083 23 32 50
23.577365 -40.456867 355.482793 109 47 65
57.343698 14.539264 402.076769 200 178 156
27.148712 56.384367 351.030970 148 141 143
27.843961 70.337117 350.469804 36 63 128
28.540981 -45.635352 359.446836 54 42 52
29.556024 69.003910 351.751208 32 75 152
33.686993 -47.289860 363.187861 55 40 52
35.355157 45.631292 357.732797 119 91 128
35.926193 -35.950583 363.904762 105 43 54
34.778386 98.091954 353.280902 103 106 98
36.964357 -23.550011 363.645506 169 157 153
36.964357 -23.550011 363.645506 169 157 153
54.790592 -8.808433 386.962867 50 15 60
54.790592 -8.808433 386.962867 50 15 60
54.790592 -8.808433 386.962867 50 15 60
37.330040 -47.565177 365.639853 168 160 158
39.436251 -39.787906 366.225314 111 49 59
39.540935 -32.848269 365.832591 113 44 56
39.540935 -32.848269 365.832591 113 44 56
39.291292 100.924551 356.046581 130 127 124
41.597217 94.712144 358.151436 65 85 97
46.222004 -44.718242 371.094203 44 36 49
45.796263 101.100862 360.081005 123 113 104
48.835781 -69.677395 373.832703 143 119 112
50.014919 -33.964050 372.388673 162 119 120
50.609863 -44.512209 373.551846 172 160 156
52.904391 -45.083135 375.197768 169 157 153
52.904391 -45.083135 375.197768 169 157 153
51.942879 79.413897 365.171957 137 87 144
56.417704 -46.202660 377.294660 51 43 41
55.228233 98.238862 367.226195 65 67 72
53.256750 80.447018 346.262741 35 22 36
60.506624 -46.613109 379.234862 172 160 156
59.082806 97.096425 368.018389 22 35 54
59.082806 97.096425 368.018389 22 35 54
56.615764 79.170626 342.175603 131 87 138
61.844569 97.279364 369.293308 28 38 53
61.844569 97.279364 369.293308 28 38 53
65.390050 98.322904 371.146059 100 109 95
67.071569 72.694319 373.969388 50 15 60
71.225399 -36.310306 383.770657 175 156 153
71.557200 -40.609023 384.209728 172 161 150
69.788361 98.438638 373.560643 98 101 88
74.509090 -28.386351 385.137939 162 121 122
74.421251 -41.970026 385.454488 113 47 57
74.060655 63.207513 378.156018 48 37 58
73.877198 84.436327 376.421070 39 19 39
76.897097 21.997441 383.029914 31 31 75
77.152050 22.107428 382.943368 31 31 75
76.394606 91.531098 377.065039 130 128 122
81.630158 4.741585 386.514616 139 136 140
81.678760 -43.411550 388.554168 165 159 157
83.735257 6.864966 385.776758 139 136 140
88.846207 50.926113 376.976299 26 28 86
110.191798 37.933490 391.206169 144 143 140
124.240839 -32.359871 242.469811 57 60 68
359.865522 19.470736 301.482296 59 88 121
351.989317 17.759834 299.290395 141 148 139
369.409180 16.821766 298.703694 12 22 76
335.282683 15.457329 300.994420 138 138 138
-262.543297 166.051948 312.112093 20 18 12
-173.373926 124.485171 315.279341 45 104 127
-269.783998 118.767595 321.017122 22 15 24
14.294843 -56.425530 321.574855 79 30 48
-139.538896 -61.617446 330.035925 171 143 135
-101.417422 120.520687 315.141678 11 61 92
-265.549922 103.104997 326.229358 134 127 128
-99.677330 118.530536 319.667387 32 95 122
-67.469430 113.672483 319.600487 14 54 80
-83.613849 89.452946 323.989940 0 19 67
-63.005644 105.631602 321.840119 0 41 73
-78.771871 -22.574979 337.293696 35 18 44
-51.013684 -64.311302 339.104748 152 146 139
-56.446797 54.035670 331.299376 68 90 124
-37.960467 47.170591 330.534792 82 125 169
-25.612500 87.413394 326.557565 0 22 63
-22.843784 75.507969 328.111172 9 16 27
-39.619851 -59.421813 341.061497 22 17 21
-50.683856 -15.745802 338.873672 32 20 50
-50.683856 -15.745802 338.873672 32 20 50
10.713514 -34.622124 335.499978 143 108 106
-98.423827 86.495751 337.249589 17 22 33
-98.423827 86.495751 337.249589 17 22 33
-33.867067 -53.234732 344.248962 162 151 152
-23.785467 -19.450258 340.736175 90 61 60
29.919308 95.470816 327.844787 42 100 128
16.167837 78.642631 330.840325 7 21 45
44.582090 51.981246 331.335783 15 16 49
38.660237 72.481507 331.736326 12 21 46
46.214083 68.298829 331.295037 28 99 141
46.214083 68.298829 331.295037 28 99 141
-11.492980 -65.312356 350.068355 158 117 100
-11.492980 -65.312356 350.068355 158 117 100
-2.332860 -43.814194 348.091865 111 44 49
28.206137 99.861783 332.901359 87 83 69
23.083124 -27.237305 343.906379 145 128 107
310.251689 27.884588 303.050017 29 99 130
59.642965 81.371772 331.001568 47 102 129
6.236286 -47.129473 348.603344 52 34 42
61.412680 86.531311 332.158899 15 17 29
31.074750 -25.665367 347.149658 93 68 84
-4.237200 -38.618553 353.572774 106 36 37
31.607518 -29.263538 348.085976 145 109 104
72.182125 47.780606 336.195159 18 18 56
72.182125 47.780606 336.195159 18 18 56
53.652644 -10.866722 344.261718 94 63 68
50.951242 -19.768822 346.068048 143 131 109
78.005248 62.136763 336.243391 48 10 63
91.392910 68.777096 337.959218 126 81 137
69.675606 -5.785053 348.050857 130 102 121
59.331822 -37.836248 353.852153 48 29 32
91.854614 58.834207 340.533924 24 51 123
503.189325 44.512594 268.262219 107 65 64
108.377314 74.805492 341.032481 36 74 94
126.610088 72.107947 337.929249 23 30 41
79.860789 -16.185734 354.917026 163 151 147
82.774401 -27.168500 355.890536 176 152 145
81.745815 -12.824741 354.860830 117 93 120
129.549026 72.194976 341.192698 33 23 28
84.174591 -26.100603 359.058166 156 126 116
88.502866 -30.192205 359.496975 165 156 151
88.813913 5.911956 356.868052 136 137 165
91.283149 -40.043256 360.999465 170 161 150
86.379194 -32.774100 362.128878 51 37 47
92.168349 1.363558 357.925630 50 97 143
107.212901 -35.111585 359.071565 61 45 47
89.218801 -35.063559 363.048911 57 45 41
138.885403 70.523709 344.237471 14 22 42
93.241423 -33.873081 364.253235 62 53 48
93.241423 -33.873081 364.253235 62 53 48
92.885065 -49.853280 366.062522 137 147 149
141.158521 68.841207 344.882107 48 92 113
98.868680 52.433240 356.156063 6 46 106
91.842008 -32.483754 366.004014 167 158 147
142.552829 70.278108 345.682740 14 20 39
96.055776 -52.456117 367.753005 142 152 154
351.495790 17.316882 300.329494 171 143 135
351.495790 17.316882 300.329494 171 143 135
148.207939 68.158782 346.357751 48 82 112
140.415680 65.095198 348.669219 13 17 16
127.109158 65.081549 352.400875 30 16 33
73.687649 4.405861 374.531341 150 144 150
166.072917 66.044825 345.175743 93 97 79
361.699724 19.050464 297.824931 114 119 104
129.302502 65.502059 357.641482 26 9 35
129.302502 65.502059 357.641482 26 9 35
96.648413 -25.470236 374.943352 59 45 47
356.201029 17.096607 299.781775 84 45 29
104.486167 61.828631 365.430951 48 12 60
143.843901 70.806980 354.580712 13 22 26
170.641160 64.015692 347.853017 13 22 26
123.412800 67.224509 362.216377 124 79 135
123.412800 67.224509 362.216377 124 79 135
186.683273 61.604065 345.022106 92 102 90
143.431473 63.495708 359.189963 27 16 23
166.483390 58.423847 352.820134 27 16 23
401.861620 19.429916 272.253132 150 149 141
350.622129 17.035602 298.494506 60 66 73
350.607800 17.032222 298.489690 60 66 73
-152.561057 89.177811 312.903309 104 88 91
-276.248908 167.558801 313.031316 19 23 22
-104.592776 -8.012953 329.860210 65 55 73
32.735920 -64.399785 328.769159 66 38 23
-107.262433 82.056302 323.788571 103 98 93
-99.176478 77.827519 324.920130 25 21 32
61.113846 -71.059090 329.272485 52 27 96
15.027651 -70.996642 332.305408 85 70 69
-85.140926 88.990706 324.126625 0 24 63
-20.933773 -22.519273 329.665208 150 142 140
-0.057750 -63.357478 333.750796 100 38 37
21.130012 -70.162058 334.269547 54 28 32
-37.337899 -17.713328 334.695411 29 15 37
-60.559702 112.814319 325.616693 15 56 87
-6.556615 -53.895897 336.491370 148 143 133
-33.836377 99.657041 325.258493 3 33 61
-3.717400 -62.925261 338.410187 148 106 100
5.825234 -53.932685 337.292576 26 19 21
-28.366214 -13.201214 337.373018 36 27 66
-41.193205 36.561626 334.418607 58 117 147
-23.409526 38.806626 333.934188 30 25 84
-27.242681 78.784162 331.942129 34 102 140
32.464275 93.584114 329.183054 0 47 79
14.982316 64.785248 333.639240 22 19 46
39.620239 80.622786 330.800462 125 122 126
30.090025 70.651120 332.679558 32 98 136
30.179641 76.121849 332.345223 49 102 124
36.545020 -58.089250 343.798614 150 133 125
275.908899 34.716848 310.677052 4 45 81
40.999159 67.598075 332.773519 37 99 128
40.999159 67.598075 332.773519 37 99 128
51.802117 75.516951 332.949853 18 19 34
27.678311 -42.789009 346.223307 33 18 32
48.407096 40.777627 338.447738 71 106 154
50.631565 -35.095876 346.536946 91 34 44
54.964471 79.227638 336.322808 13 17 17
57.776326 37.936428 339.873171 15 26 97
46.728629 -6.168110 345.256305 32 22 52
64.022946 47.517383 338.422799 19 14 54
52.116048 -43.165821 349.192262 156 144 140
84.992737 80.046856 334.802151 12 21 39
69.662768 68.623209 338.960862 121 76 130
66.625947 -16.357762 347.138786 67 50 76
78.255582 83.722520 337.466598 84 89 76
109.727323 75.975513 334.177661 78 88 76
72.524434 -48.223236 352.531290 147 109 91
479.720926 -9.141374 285.708570 24 13 34
103.717971 36.729291 341.928196 28 28 88
103.717971 36.729291 341.928196 28 28 88
76.330757 -34.969410 353.348494 150 145 140
70.556855 -23.857626 354.584265 142 102 96
591.675568 64.732140 259.638906 36 16 29
92.109329 -15.617797 352.640343 156 144 140
84.462416 -40.325013 356.624675 147 146 138
90.341932 -27.768534 354.620719 174 141 134
90.388119 -29.019299 355.797553 99 33 43
531.831741 -20.499001 274.739242 24 13 34
531.831741 -20.499001 274.739242 24 13 34
113.428342 25.854081 347.157288 68 116 146
93.175030 -46.695971 357.649994 157 135 128
87.918133 -66.716546 362.073159 57 30 31
76.792264 -68.596768 365.021682 118 103 127
96.258390 -36.776674 358.522773 161 147 143
117.182839 8.155485 351.451468 23 51 119
108.165884 -29.973695 357.409906 20 15 24
105.476820 -24.578775 357.899642 97 28 39
101.733994 -44.596812 360.499573 163 147 137
131.928730 55.172622 346.369648 39 25 67
118.543136 0.410699 354.153037 15 46 101
152.607727 68.225503 342.938781 25 33 60
123.308802 -3.037653 355.624485 0 18 62
114.513934 -27.408224 360.350823 43 25 33
114.806306 -29.744008 360.649514 157 145 141
149.241281 60.858470 345.270681 113 70 124
27.842683 87.608254 371.553874 118 73 134
108.098733 -34.894979 365.117145 23 17 23
120.033336 -40.187198 363.658786 162 144 132
116.120386 -45.075560 365.131783 150 127 116
115.945125 -44.619808 365.254498 167 145 131
161.327362 59.288079 347.832417 118 73 134
116.425967 -60.865951 370.486617 66 33 24
119.435799 -58.439344 369.611168 148 120 91
150.283349 22.033927 357.369471 122 92 116
334.619498 17.933421 309.825492 22 21 25
172.722149 60.910583 349.096298 18 16 16
162.113369 45.437962 354.155493 114 121 125
141.603327 -21.251719 366.142726 105 36 47
159.933257 47.701278 355.470371 34 17 41
143.593061 -14.240019 366.207147 170 142 139
177.204251 63.659388 349.737215 19 19 13
167.967343 44.164848 354.866982 51 39 64
430.044222 0.130851 282.297468 108 114 107
125.654471 23.381336 372.040963 143 134 123
386.236405 16.508839 292.908382 155 153 147
350.533175 13.564521 307.744360 145 152 148
351.368713 13.785055 307.958698 145 152 148
351.713443 13.885285 308.041692 145 152 148
397.468162 18.489599 279.333568 163 162 154
-51.536757 95.962059 295.124125 124 130 129
-165.128136 89.373606 296.171832 33 39 32
-215.616059 -114.163089 325.811481 165 165 165
-158.746481 84.770626 309.024620 25 19 30
354.910707 14.890081 323.442602 59 82 106
52.803403 81.295395 331.308556 39 74 96
54.724979 46.597767 336.496663 56 77 100
39.350548 -5.769418 344.029236 128 125 134
55.103773 -17.501278 347.746491 73 60 72
72.590631 -38.017651 353.141880 133 127 133
86.818600 -7.486124 349.856973 48 68 112
100.445282 34.329671 343.997145 38 89 130
94.757932 -15.504782 352.276301 130 124 122
361.210895 15.682793 323.404717 56 17 67
361.210895 15.682793 323.404717 56 17 67
121.704566 75.102001 341.200566 70 81 73
112.796760 -27.509344 356.854272 21 17 23
111.721969 -40.057555 359.426093 91 40 45
124.376309 -28.391427 358.699059 130 129 126
122.047770 -47.796637 361.858296 117 123 123
124.799883 -29.071555 360.947275 28 24 25
160.889447 52.877998 351.291585 56 17 67
160.889447 52.877998 351.291585 56 17 67
160.889447 52.877998 351.291585 56 17 67
152.111423 -24.293046 362.557983 131 126 121
152.111423 -24.293046 362.557983 131 126 121
151.861143 -40.118945 365.392065 90 52 44
154.025424 -20.196614 362.966490 73 24 37
154.348755 -33.548042 365.168118 92 53 56
121.459055 33.224341 377.730536 133 110 85
112.138391 33.054006 381.514215 55 40 32
58.970797 59.971142 402.438784 89 75 53
63.140094 83.984607 398.487782 41 32 19
10.533489 -47.421396 431.925678 99 73 65
331.875587 15.110059 326.642513 34 41 32
322.501516 14.739692 328.306818 128 133 136
4.028820 -32.715601 437.276649 152 150 156
307.364750 25.487527 329.991817 34 41 32
311.913037 24.838033 330.390906 34 41 32
-114.650154 -14.899904 326.611805 54 54 66
-114.650154 -14.899904 326.611805 54 54 66
-133.837783 -77.392435 336.029005 55 52 61
315.106225 -3.982945 363.683677 33 27 40
-17.725471 100.696468 317.258120 58 64 71
34.366471 -3.918938 377.253103 116 83 69
45.573887 21.943773 372.607303 161 148 133
38.885942 13.572927 376.842904 156 144 149
71.805173 74.295205 366.643071 142 118 96
27.238986 -9.889445 383.949447 103 80 103
21.395469 -24.079485 386.689448 57 31 109
29.245692 -6.964830 383.447146 115 85 100
29.245692 -6.964830 383.447146 115 85 100
24.694698 -16.408572 385.414672 111 82 95
24.280705 -19.957495 386.015677 41 29 123
49.038279 46.769011 376.112747 150 145 135
29.348233 -1.798147 385.112190 47 20 101
37.431547 21.539432 380.990052 155 145 136
47.655931 40.769920 378.789949 155 141 129
52.912354 53.854311 378.815269 82 57 39
51.096076 52.252877 381.964731 83 59 39
17.130679 -17.194369 398.072672 103 76 63
33.306882 30.337071 389.717841 142 116 94
-3.279955 -89.225650 412.534666 116 87 74
53.773242 62.403524 382.553482 138 116 94
60.043591 76.739550 380.093145 91 61 44
23.739216 8.528733 396.170950 96 66 58
6.618935 -38.657182 406.031275 99 78 67
33.095348 31.619245 393.197966 67 39 31
36.975300 39.359152 391.977763 74 58 53
41.876104 63.129443 396.273851 85 61 46
58.515728 93.987143 389.175200 148 119 98
43.552443 76.444083 395.094967 142 112 88
33.325580 57.147145 404.353142 96 80 54
63.737732 103.536844 393.456984 58 33 20
56.183475 93.530267 396.374917 38 26 17
33.893475 60.456097 405.516386 33 20 14
36.236745 63.602322 404.700994 36 22 12
-114.517796 61.289459 434.291267 46 23 12
27.894205 54.407459 408.480787 141 113 84
36.348733 69.487381 405.715990 136 114 94
-16.691023 -89.000696 440.417957 103 83 78
42.532635 79.427958 404.135942 84 76 60
20.420259 42.376649 414.522362 96 65 46
13.256367 28.050095 418.512774 44 28 31
28.084555 58.123654 411.344481 36 21 20
25.771651 54.292905 412.423849 100 78 56
26.557666 73.806638 413.017845 33 27 40
2.645212 2.485201 429.623461 139 136 140
9.871032 9.577015 427.266312 136 132 132
2.380046 -50.292599 443.984461 172 168 169
38.117436 97.449344 505.709648 34 38 38
38.626158 -47.523031 224.175096 132 137 133
6.749749 -89.980811 244.980907 45 54 58
10.717221 2.981185 372.297645 118 80 67
2.773378 -47.765833 386.900449 57 27 24
40.348324 64.809793 364.653444 93 65 41
7.771791 -89.069986 397.409940 151 127 107
3.581905 -38.578770 390.054131 109 79 62
24.093963 42.258996 375.905633 158 144 134
23.211622 37.278756 377.075338 153 142 131
15.750349 24.849392 379.751587 155 140 132
13.315780 15.516256 384.929204 143 113 96
10.739477 7.647996 387.034512 102 76 66
12.919997 13.999894 385.875130 98 65 56
3.576674 -41.776419 398.269272 107 81 66
4.315653 -27.719176 398.163009 114 85 66
16.480906 25.949803 386.620426 105 82 64
27.994984 52.886111 383.294892 137 113 93
19.651321 47.672355 385.143447 148 118 94
59.912920 96.096635 374.171305 88 65 35
25.644943 49.873835 387.186527 41 11 1
-60.679001 38.243628 392.162704 79 67 63
18.098792 38.907260 390.500903 47 40 30
4.307853 -41.894594 409.416580 98 81 73
24.410056 50.455052 389.056540 38 21 18
27.437100 53.969032 388.390708 139 114 81
28.952658 57.226825 389.932489 80 55 37
18.540689 36.727390 396.708274 142 118 98
6.936701 5.276304 404.246569 145 118 100
15.983185 34.070578 397.463512 142 113 94
25.795650 55.283910 393.508244 139 112 86
25.795650 55.283910 393.508244 139 112 86
5.015272 -18.917334 411.018658 105 77 67
5.834593 -4.289918 410.759592 93 73 59
4.498141 -34.607413 418.003035 95 71 51
5.163448 -7.157502 415.578365 114 85 66
8.749962 13.666098 411.780691 142 116 94
8.039765 8.638395 413.804531 142 116 101
13.259391 -81.439120 434.277105 150 124 114
26.435387 62.425303 402.509260 135 112 82
42.948902 88.493115 395.771527 143 114 88
5.736836 1.020272 419.782686 45 23 16
7.721990 12.155606 417.390776 40 24 19
6.001353 5.598979 420.043182 89 77 68
55.029213 101.097453 396.655774 50 34 24
23.664182 60.241967 409.073305 119 102 79
424.862242 16.381785 394.819307 34 35 32
4.687207 2.219143 425.255060 43 20 23
4.687207 2.219143 425.255060 43 20 23
14.426155 41.844699 415.798664 94 67 54
28.860602 69.990748 408.039618 38 16 9
36.615846 81.725901 404.941893 43 27 17
44.068572 93.772453 401.662064 46 32 20
49.560204 98.695230 400.098133 46 32 20
49.311602 92.565632 406.198263 121 122 119
40.807912 81.098372 409.505892 112 108 109
38.648316 75.953561 411.211681 44 37 38
270.878959 34.927016 393.696976 34 35 32
39.971271 86.351150 488.766050 128 129 126
541.087341 47.469768 428.743458 128 132 132
47.840637 59.567159 353.630638 31 32 29
51.094884 57.603639 360.157895 24 16 27
26.767308 -8.995573 372.515869 128 128 128
24.763058 -5.431506 372.051787 128 134 133
119.854748 80.109149 362.349868 136 116 97
139.284587 76.473159 364.358425 136 116 97
159.890187 72.705394 366.459918 136 116 97
159.890187 72.705394 366.459918 136 116 97
69.943762 33.259279 370.962429 154 140 123
24.857432 20.817675 371.556377 151 138 123
14.535168 -3.678238 379.137897 155 142 141
17.846400 -42.624581 387.696600 56 23 22
49.201903 96.763885 364.417791 136 118 86
11.856682 5.364000 381.983876 96 69 117
26.435909 47.672269 375.864792 150 132 122
-1.951065 -18.326047 393.602371 95 68 50
18.127576 46.768662 381.829619 100 71 50
14.998131 44.138724 389.000487 34 18 26
10.773857 38.585168 391.054392 40 30 28
-8.353281 -10.798805 402.543879 96 59 48
11.528980 38.562647 392.265964 31 21 26
-10.939808 -9.060507 404.252291 137 113 77
-13.966540 -12.639725 405.232620 134 115 92
1.050803 21.338600 398.975015 98 73 60
-11.076678 2.585904 405.748224 139 118 88
39.321965 81.359607 388.057041 83 56 38
-12.550649 0.772444 407.291126 96 72 50
-12.550649 0.772444 407.291126 96 72 50
27.388903 63.700408 395.341778 79 53 38
5.709087 34.064314 406.485701 92 70 56
5.709087 34.064314 406.485701 92 70 56
-19.052075 -3.384340 416.208220 96 71 53
13.176130 44.859368 407.153511 102 71 43
1.266909 30.608881 411.057663 97 61 48
21.680382 57.573158 408.456516 34 17 23
52.684885 86.752182 400.846338 69 59 37
391.525269 60.353351 386.046052 137 144 135
428.073120 68.966347 379.034448 133 132 124
392.225814 61.761898 382.706094 53 67 96
271.155405 41.648126 414.025307 144 143 140
-58.172011 -39.203072 523.268175 140 138 132
389.344263 46.369770 383.217621 128 132 132
319.033551 32.417518 371.023703 150 150 150
181.121290 -12.879933 378.756976 173 173 174
176.057613 51.398325 368.289351 28 19 26
166.931808 56.029069 367.324448 30 32 26
166.931808 56.029069 367.324448 30 32 26
162.992072 -7.522798 378.757596 152 153 150
202.484035 -2.356852 380.058384 162 160 160
107.804525 62.115043 369.157934 108 73 57
83.010846 17.938170 377.671123 141 130 132
83.590388 63.770300 370.221853 127 108 87
66.213346 -34.780169 388.632202 93 71 57
64.870787 26.153082 377.978158 75 59 61
45.481366 -28.564322 388.762259 128 109 88
19.639657 54.924101 378.346276 76 55 39
12.636358 53.596628 381.872702 78 55 37
12.952517 44.609058 383.859205 93 59 39
37.320837 -79.596281 408.553219 101 72 59
3.298684 64.148355 382.996821 88 65 47
17.689745 -39.657179 404.113579 88 62 54
35.047597 -67.665017 409.175491 98 68 58
10.858554 66.944242 385.307550 94 70 55
11.862125 38.763431 390.992236 53 35 25
15.783328 16.276726 398.685646 92 67 54
19.496262 63.121194 398.639822 74 52 38
65.312707 3.917880 406.907749 87 67 53
69.268441 -9.830451 409.440756 108 84 64
79.759884 -33.076322 413.259554 101 72 53
101.385355 -43.650022 413.747501 101 73 49
82.300526 -9.332493 410.667276 89 57 40
39.115328 103.772902 394.299102 113 82 68
62.274450 52.666450 402.566195 127 101 79
51.642555 104.644144 395.482802 47 39 37
145.172775 -45.004252 414.874268 106 84 64
59.023643 79.379702 399.856877 67 65 41
53.734916 110.589600 395.179272 51 35 23
84.267712 28.495064 408.178711 36 19 25
68.929344 89.151847 398.071003 38 30 28
65.912282 80.173433 400.236130 39 30 25
77.127081 76.100171 399.868321 25 21 14
74.547064 56.073576 404.127073 31 22 24
64.753437 85.231829 399.536729 64 48 36
73.480821 59.296852 403.691673 52 29 25
67.535609 24.620102 412.098503 118 87 66
105.489028 11.133418 410.242224 43 15 20
105.489028 11.133418 410.242224 43 15 20
126.936698 -22.129433 414.752913 74 40 20
162.874413 -21.700798 420.536518 23 11 46
335.115957 36.628744 382.152319 35 26 33
366.037774 42.596918 374.328542 177 173 173
365.212321 40.846992 374.601984 141 145 144
595.723772 4.157570 392.884135 37 45 33
13.345748 57.204503 384.737825 122 126 126
3.622436 61.934084 386.640668 16 20 19
173.786199 -10.328901 380.613565 170 168 168
-28.477126 52.499431 393.738198 59 38 35
-190.181410 68.411207 428.869104 47 107 135
102.813900 12.146472 408.992529 33 24 26
74.689525 19.801526 399.057865 56 30 22
-44.050288 51.965737 407.892036 88 63 50
140.219653 2.505916 396.471047 116 90 70
206.337333 -15.911432 395.833015 55 46 35
200.218272 -13.997681 395.794940 68 51 43
-520.165968 184.415066 466.417170 73 67 73
-482.577753 167.270958 460.936213 13 22 20
-204.312325 84.759378 431.691504 8 13 9
156.717920 -15.037695 421.336603 31 15 18
167.622602 -4.276026 400.584269 13 12 16
178.616858 -7.121109 400.139093 19 17 18
178.616858 -7.121109 400.139093 19 17 18
-300.108099 103.023553 445.036316 132 86 144
-300.108099 103.023553 445.036316 132 86 144
75.924027 17.839144 408.008432 61 113 149
227.746391 -21.088086 400.527620 141 104 161
223.345804 -19.658597 400.408554 147 103 161
-308.624887 97.134441 450.463820 34 20 37
-21.725060 36.433995 420.865679 0 36 111
-278.440380 88.312548 448.065281 117 122 131
-475.801945 121.663976 475.506878 117 124 133
203.187633 -12.440269 403.941679 180 166 168
117.428148 -21.473077 428.117895 69 36 42
189.018381 -8.445312 405.498695 120 95 130
227.798390 -19.740042 403.820610 180 167 166
188.037980 -7.836915 406.237221 170 160 158
209.726548 -13.637277 405.360222 178 168 166
102.240801 15.139192 422.195768 95 28 33
-217.090774 57.286173 461.685944 21 17 17
172.863555 -0.918140 412.610483 92 27 46
145.270312 6.725411 416.943789 89 27 38
161.831164 3.045497 415.228319 98 27 31
172.272587 2.125516 415.427876 156 149 139
206.645894 -8.484647 410.268831 26 15 16
203.453207 -7.299896 411.445618 14 12 13
215.426970 -11.459923 410.095644 171 158 152
185.080171 1.202205 415.564442 158 151 146
200.447202 -4.468865 413.020802 15 11 11
191.365194 -0.397047 415.089178 17 12 16
198.705649 5.878602 417.306519 26 11 23
216.501832 6.022210 416.505384 97 31 34
152.189434 17.814752 423.067474 77 61 51
27.079341 -6.633767 458.738470 43 52 51
111.446226 -19.554275 445.010328 43 52 51
83.278257 58.347911 428.018856 16 20 19
226.014948 17.897326 409.099150 142 147 143
317.772412 6.137625 411.391163 155 157 151
207.717466 37.688079 427.713585 141 144 147
261.280775 -0.464764 420.443249 153 159 159
263.011384 0.545043 421.352720 148 160 155
268.676758 -0.319865 424.030447 170 168 168
260.701036 -16.114239 414.361382 56 58 68
261.794758 -19.888933 414.942598 161 170 156
236.731601 2.811460 376.328635 58 76 93
112.222075 16.411862 337.917042 158 162 161
-81.942606 98.064613 408.057547 108 113 109
162.037468 -3.144932 381.270576 167 165 165
284.734869 -5.793223 413.948631 47 32 24
-334.845591 128.937614 430.348158 12 12 12
-442.998362 162.351954 451.252460 85 97 92
-662.341499 234.056139 490.064430 93 101 89
-388.267660 142.272818 440.414238 71 76 72
-619.097805 217.115998 481.778908 109 105 98
-270.303178 103.658843 420.154047 65 61 62
-235.898662 91.421390 414.873838 84 75 70
-264.320993 100.379491 419.794703 80 84 83
92.056245 -4.400741 374.611425 141 128 127
105.611444 -8.226840 373.174739 123 119 125
-77.490026 41.662472 392.512560 10 16 16
50.732481 6.337515 380.390978 59 106 157
-447.028160 147.116852 452.599001 14 67 101
-632.760859 201.267791 485.519457 42 112 151
-418.032837 135.097492 449.312305 46 110 139
-381.963968 124.172723 442.809439 20 19 23
-381.963968 124.172723 442.809439 20 19 23
-516.034937 163.949037 466.202688 57 112 139
-386.534142 124.892473 443.125868 20 19 23
-250.420451 84.212440 422.522402 72 95 138
-556.153584 171.486115 472.737646 1 43 85
-556.153584 171.486115 472.737646 1 43 85
-137.757611 53.343719 406.602955 84 132 160
110.641587 -11.984728 377.269793 148 104 155
-592.800617 178.334606 479.991436 42 105 142
83.844638 -4.325939 380.307841 96 142 172
276.649737 -8.519172 419.393682 47 39 37
115.848494 -13.036256 376.324797 148 104 155
115.848494 -13.036256 376.324797 148 104 155
175.465322 -29.333895 369.262552 66 59 61
173.337185 -28.818771 369.420457 33 24 40
132.036209 -17.397632 374.896455 73 62 74
-632.853413 184.329522 488.048458 1 45 87
-498.949909 146.418238 464.797592 0 34 72
150.602102 -22.746187 373.235536 116 133 161
157.307088 -24.521245 372.567940 162 139 155
133.264935 -18.191107 376.209998 177 168 163
-271.324825 82.423204 429.967260 41 16 59
-271.324825 82.423204 429.967260 41 16 59
143.825984 -20.950125 375.133157 59 79 125
-564.487791 156.502557 477.665901 0 16 47
-468.191147 131.157076 462.068748 0 14 41
144.910800 -21.759452 375.520945 90 124 161
-498.848391 136.190212 467.708635 119 117 123
145.300329 -21.718842 376.771235 52 80 124
145.300329 -21.718842 376.771235 52 80 124
136.328518 -19.364464 378.170156 175 167 165
-45.383176 24.467148 401.749134 17 16 89
-487.177753 130.441284 463.081741 19 15 37
153.524458 -24.002887 375.636983 80 82 126
153.524458 -24.002887 375.636983 80 82 126
78.205043 -4.431503 388.256478 57 136 167
-531.560421 136.118317 476.432323 44 115 152
150.353348 -23.818550 379.259896 174 173 170
-48.624447 23.286137 410.339546 17 23 98
158.373904 -25.975779 378.777623 179 171 164
147.796512 -23.266014 380.330014 179 170 165
162.495768 -27.360898 378.632045 171 151 166
149.567175 -23.951840 382.738471 129 91 85
149.567175 -23.951840 382.738471 129 91 85
162.301695 -27.354261 380.524158 128 95 88
-11.848108 13.800442 414.307880 20 41 130
-604.034996 125.068784 499.290609 41 111 150
102.179646 -12.093531 396.546030 59 119 165
-512.917519 103.336394 489.718008 12 14 24
181.005168 -32.602334 380.639982 52 21 41
155.705464 -25.608802 387.128067 92 76 98
171.509814 -29.755697 383.835268 95 80 113
-641.221714 120.759737 511.137629 132 118 114
25.026959 6.675750 418.172979 139 102 139
68.980777 -3.166195 408.771992 46 19 54
-504.341316 94.847155 494.375324 15 19 19
151.565516 -24.229527 389.588261 151 112 142
100.998127 -10.863626 401.939154 38 27 60
100.998127 -10.863626 401.939154 38 27 60
117.409611 -14.947745 398.322177 42 26 68
167.148733 -28.706557 386.682606 30 26 50
164.771664 -27.957895 387.438893 163 143 116
130.864024 -17.695101 397.629976 150 109 137
64.199346 -1.417068 412.968874 172 148 146
140.172899 -20.968218 394.212532 156 113 143
129.477394 -17.815441 397.608709 150 109 137
99.865031 -10.264760 404.593945 181 152 146
95.604920 -9.246843 405.736732 183 152 151
162.160254 -27.191311 388.794446 68 112 154
162.160254 -27.191311 388.794446 68 112 154
120.069110 -15.437818 400.030136 177 156 147
159.593558 -26.378322 389.999199 165 145 118
81.926519 -5.311103 410.619116 103 40 62
113.865113 -13.502304 402.972651 165 148 140
98.209566 -9.128924 407.490683 105 33 53
102.712989 -10.529040 406.136799 102 70 79
72.231191 -1.666983 416.541576 98 23 32
72.231191 -1.666983 416.541576 98 23 32
7.312153 12.032758 431.234980 155 141 151
124.549425 -15.886290 402.430487 106 39 65
124.549425 -15.886290 402.430487 106 39 65
96.589828 -7.801919 411.380863 165 149 139
124.433708 -15.517390 403.419638 170 153 138
87.494254 -5.428158 413.878345 163 147 142
108.942044 -11.154348 408.030939 167 151 139
128.546071 -16.703209 402.220440 179 158 147
-435.995340 73.917013 494.238329 151 111 132
147.131658 -22.356386 396.387219 105 31 37
147.131658 -22.356386 396.387219 105 31 37
116.037023 -12.920938 407.577372 100 28 34
116.037023 -12.920938 407.577372 100 28 34
-135.155904 34.299719 458.251762 147 111 120
161.301553 -25.954404 394.421077 36 25 26
79.764849 -1.766451 420.722008 100 34 44
-24.090278 19.454591 445.368958 100 27 36
185.669100 -33.305171 387.646317 149 126 135
93.303716 -3.528027 420.735121 165 151 139
93.303716 -3.528027 420.735121 165 151 139
104.579055 -7.246552 417.162895 171 149 149
122.696030 -12.816714 410.946560 107 45 56
97.222507 -2.925220 422.917986 21 14 23
101.723969 -5.827792 419.400501 14 11 15
152.716386 -22.726810 400.349569 26 17 19
189.581096 -33.904973 388.691425 21 25 24
189.581096 -33.904973 388.691425 21 25 24
148.691583 -20.777804 402.867413 25 18 20
60.181284 12.151888 441.559887 83 95 129
162.005913 -25.780016 397.422123 172 161 155
162.005913 -25.780016 397.422123 172 161 155
133.079135 -15.242027 410.228729 23 17 15
96.285307 6.804805 437.027550 96 26 34
114.153719 -5.747062 422.068310 164 152 143
168.817341 -26.843396 397.679782 39 25 35
155.747533 -22.162230 403.228378 170 159 153
172.095191 -27.996236 397.003984 116 44 50
107.222593 -21.405402 411.300707 173 164 153
158.064878 -22.915730 402.940130 173 164 153
158.064878 -22.915730 402.940130 173 164 153
135.972929 -12.683499 415.572405 163 152 146
135.972929 -12.683499 415.572405 163 152 146
165.881658 -25.450408 400.667620 18 19 16
129.447401 -7.236091 423.066235 24 13 20
153.050983 -19.503716 408.617020 171 159 150
153.050983 -19.503716 408.617020 171 159 150
153.050983 -19.503716 408.617020 171 159 150
170.638025 -26.833746 400.070953 171 160 154
170.638025 -26.833746 400.070953 171 160 154
161.801517 -23.309395 404.248714 24 19 23
136.676717 -3.895001 427.167130 161 152 139
137.649560 -3.945102 427.082634 161 152 139
140.903246 -12.413231 417.941284 21 17 17
137.116873 -7.096637 424.183178 159 154 144
194.534826 -34.569955 392.732358 72 40 49
