ply
        format ascii 1.0
        element vertex 61216
        property float x
        property float y
        property float z
        property uchar blue
        property uchar green
        property uchar red
        end_header
-259.568310 101.960599 943.813229 68 67 93
-625.074434 -120.021176 1000.178146 8 27 12
-682.308865 -98.754078 1020.878220 65 102 82
-446.909761 20.360307 980.041790 108 112 141
-288.574409 92.074281 951.310444 65 65 89
-274.061942 96.174675 948.237896 57 57 87
-363.421464 61.079550 968.004608 128 127 161
-666.034937 -109.874153 1018.544006 82 114 103
-258.431077 100.222671 947.038841 69 68 94
-367.068195 58.507019 969.274426 81 84 115
-656.492090 -98.748428 1020.235729 44 70 54
-657.800674 -101.423240 1020.288086 189 207 200
-274.186420 95.180875 952.575207 72 71 97
-423.467112 31.066909 984.322548 97 100 128
-269.625759 94.869626 953.838921 157 155 177
-355.045724 65.894020 972.910786 127 125 161
-624.719715 -103.359556 1015.870094 0 13 2
-266.176224 96.713132 953.772259 92 93 113
-297.466135 81.580502 960.656166 76 76 106
-354.678750 61.543554 974.279213 120 121 159
-261.856318 97.853291 954.773808 70 72 90
-306.128120 79.658139 964.212894 130 130 160
-326.021481 74.192107 969.086933 55 57 88
-351.996803 60.807025 973.980236 122 123 161
-352.309227 65.467960 975.185394 46 47 81
-261.409068 97.675681 956.540871 175 178 193
-366.316509 57.426912 979.359436 123 124 162
-326.732993 76.974237 972.385883 133 135 166
-326.732993 76.974237 972.385883 133 135 166
-667.425489 -108.775949 1034.700298 65 90 80
-302.674174 83.059722 966.822910 98 98 128
-369.273067 56.273854 981.137276 49 50 88
-590.739489 -103.442955 1013.292980 48 87 66
-418.590355 34.685719 992.257881 135 135 165
-367.294312 60.102320 983.016872 124 125 163
-485.151815 -4.347423 1005.060673 79 84 117
-483.820486 3.040087 1010.565472 83 85 125
-501.230907 -16.212185 1011.950684 91 93 127
-501.230907 -16.212185 1011.950684 91 93 127
-360.953760 59.300256 985.646915 77 78 116
-279.604435 90.309042 967.553997 73 73 97
-370.779347 51.365358 988.579082 126 127 165
-275.684428 89.727068 967.381763 149 150 170
-326.841903 65.367687 979.898167 133 132 166
-295.009494 83.994353 976.171398 142 136 159
-387.378573 43.777746 996.935940 55 57 91
-302.749825 85.195065 979.854393 67 63 88
-302.749825 85.195065 979.854393 67 63 88
-624.541950 -130.340517 1035.328674 58 83 63
-322.068334 77.237952 985.711288 127 124 156
-568.910313 -64.894509 1033.791256 34 55 100
-572.315979 -64.536464 1035.062218 34 55 100
-421.946430 28.355232 1007.529926 77 78 106
-349.391174 60.709083 991.730785 127 124 163
-266.273999 93.992978 973.583508 149 149 173
-392.033458 40.157422 1002.209091 125 127 161
-487.836170 -10.325568 1021.930885 90 92 126
-385.112858 46.984422 1001.828480 60 59 93
-343.388271 63.393664 992.088509 188 210 245
-605.050755 -135.069346 1032.846165 57 82 62
-373.409820 47.316200 1000.585747 128 127 161
-352.983308 56.570101 997.263527 129 128 162
-377.510595 48.710555 1004.837513 50 51 85
-282.859135 86.740994 983.977699 83 79 104
-282.859135 86.740994 983.977699 83 79 104
-358.113217 58.401978 1002.645588 59 58 92
-500.698805 -27.486682 1031.216145 101 105 129
-367.744064 46.694136 1003.824806 53 54 88
-431.282520 11.051396 1017.719746 96 100 128
-314.730740 76.152772 993.769169 134 129 161
-382.811642 40.078267 1009.406471 75 77 111
-323.934960 65.826011 996.473885 80 78 108
-371.283770 50.912154 1009.072113 61 62 96
-371.283770 50.912154 1009.072113 61 62 96
-398.155856 34.182295 1014.508629 63 64 98
-362.216520 45.440397 1005.702591 126 128 162
-555.595684 -107.933462 1036.399937 61 81 69
-365.957475 50.973392 1009.000206 60 60 96
-376.031446 50.199163 1012.204456 126 128 162
-376.031446 50.199163 1012.204456 126 128 162
-580.060196 -142.169464 1038.282871 53 64 56
-268.751836 89.726478 985.829353 86 81 110
-368.645859 50.102967 1011.411095 130 132 167
-573.877954 -141.363418 1039.432144 4 22 9
-320.454693 68.957275 1000.811386 52 50 79
-271.478939 89.772350 989.896584 79 75 100
-575.518894 -151.562178 1039.895916 38 44 43
-295.673108 79.201120 996.277523 68 63 92
-342.697859 58.423877 1008.001041 84 83 117
-376.341629 45.350561 1016.926765 66 65 104
-295.964599 76.367652 996.800995 131 128 160
-299.364972 77.660358 998.427486 131 128 160
-398.366642 23.684093 1020.992184 131 131 161
-547.378445 -70.244819 1051.726532 24 29 78
-576.597500 -141.746318 1046.292019 50 72 53
-334.808826 62.702155 1010.069180 54 54 84
-301.554346 79.914391 1002.482605 66 61 92
-287.940884 77.449012 997.671318 121 117 142
-252.577448 92.656142 990.199852 60 57 82
-383.945847 38.619748 1024.418640 57 59 94
-560.570335 -82.422894 1059.650803 110 111 161
-560.570335 -82.422894 1059.650803 110 111 161
-251.128364 93.492723 992.372227 144 145 165
-470.336151 -18.916459 1047.004032 89 91 125
-343.399143 56.464291 1020.090199 85 81 116
-542.887974 -74.395496 1062.134743 74 73 129
-301.783180 75.203294 1010.387325 58 53 80
-558.400011 -108.530545 1061.744022 48 101 74
-395.149541 25.881478 1034.812641 76 77 115
-339.031267 57.636124 1021.909428 63 59 94
-256.403351 91.261858 1000.210190 56 54 83
-272.321892 85.946447 1005.069351 91 86 113
-272.321892 85.946447 1005.069351 91 86 113
-316.487384 65.795845 1016.711521 71 72 100
-606.187963 -131.680036 1078.006840 82 100 101
-269.922614 93.553859 1007.089043 128 127 153
-332.540607 55.013269 1021.946144 134 130 165
-265.093923 87.862754 1005.297852 84 81 107
-565.528107 -112.486935 1070.716000 50 55 56
-381.601238 34.229901 1038.308525 139 140 178
-489.561987 -34.109989 1065.105820 95 97 127
-343.616009 51.063973 1030.683231 70 72 107
-374.739242 36.888716 1039.180088 73 75 109
-374.739242 36.888716 1039.180088 73 75 109
-257.255411 89.400393 1007.670498 85 82 107
-257.255411 89.400393 1007.670498 85 82 107
-528.134632 -80.519366 1069.946289 80 77 132
-530.506468 -84.011644 1070.208073 90 84 155
-422.183800 11.652522 1052.458191 74 77 108
-391.080761 28.830251 1045.452690 126 127 165
-391.080761 28.830251 1045.452690 126 127 165
-543.248749 -102.518332 1072.162342 0 35 27
-543.248749 -102.518332 1072.162342 0 35 27
-340.263104 52.405900 1032.599735 56 55 89
-343.264413 50.908834 1033.504581 135 135 171
-393.882990 29.833955 1048.104095 124 125 163
-393.882990 29.833955 1048.104095 124 125 163
-349.713731 51.284647 1036.478138 99 101 136
-274.017501 81.842786 1015.635014 72 71 87
-356.738377 45.734316 1040.330315 65 64 96
-356.738377 45.734316 1040.330315 65 64 96
-276.776767 81.113756 1018.643475 160 158 177
-409.642982 18.756187 1055.084419 73 75 109
-332.799339 61.830252 1035.883999 78 77 109
-392.116737 24.931882 1050.192356 73 74 112
-352.123308 45.721504 1039.741993 152 151 185
-352.123308 45.721504 1039.741993 152 151 185
-531.409550 -117.237198 1071.001911 20 76 53
-531.874561 -88.325906 1079.012394 88 83 152
-528.651524 -80.093187 1080.790329 57 54 86
-270.246553 83.134538 1019.427872 95 91 116
-415.432739 16.156116 1059.883976 142 144 178
-287.287784 73.886770 1024.125576 87 82 109
-320.193267 65.625197 1035.874081 74 72 101
-398.350072 23.683462 1056.644440 127 128 166
-395.008349 18.350212 1054.216766 63 65 99
-529.844475 -91.268504 1081.186962 28 23 98
-533.307791 -93.872142 1082.757378 82 78 153
-291.103578 74.572623 1028.288460 156 152 177
-266.860795 84.132612 1023.065472 162 159 185
-536.573076 -101.029217 1085.389137 80 88 141
-412.545013 12.426338 1064.742279 137 139 173
-426.045752 3.805891 1068.200684 97 99 130
-529.984522 -89.827454 1087.395191 82 78 144
-532.452869 -116.155958 1082.212830 1 48 26
-384.461689 27.221727 1057.966805 82 81 120
-523.660517 -87.188667 1086.883640 10 6 58
-267.172885 79.346973 1025.084114 136 134 163
-257.019210 82.318699 1021.821880 61 57 82
-525.545168 -108.873868 1083.044624 68 100 111
-387.544346 19.622645 1058.954525 71 73 108
-366.008902 34.532505 1054.064274 78 75 114
-311.161327 59.132719 1038.211250 74 72 101
-351.305556 45.881990 1051.040173 87 86 120
-547.381020 -137.275958 1085.919380 64 109 70
-522.765207 -93.480188 1086.652470 28 23 92
-537.268782 -127.135897 1084.822750 1 5 0
-421.543407 4.491292 1070.151043 87 86 120
-533.046150 -116.981959 1085.655975 54 98 81
-257.200813 85.239756 1024.037266 137 134 156
-514.012480 -112.362087 1080.156040 4 39 42
-522.307873 -89.385879 1089.017963 63 60 116
-385.493422 25.267047 1062.752056 170 169 208
-385.493422 25.267047 1062.752056 170 169 208
-379.410434 30.108649 1061.638355 77 74 113
-379.410434 30.108649 1061.638355 77 74 113
-518.193293 -93.252081 1088.672638 78 72 137
-489.185095 -58.394557 1085.693169 222 240 247
-409.692430 10.511613 1070.661259 72 74 108
-522.140408 -83.647746 1093.525600 28 26 46
-381.424570 21.941151 1063.070965 96 97 135
-525.616407 -109.046292 1089.972401 13 40 54
-427.360821 0.636749 1076.999187 95 97 127
-543.174648 -121.184909 1095.339584 51 81 70
-352.075267 43.753952 1057.851887 81 77 112
-349.490881 38.356110 1056.614017 148 144 179
-550.506735 -124.454653 1099.470615 0 8 0
-519.351578 -95.189089 1095.743275 97 93 159
-277.496052 77.053958 1038.103771 137 132 163
-269.928193 77.830553 1035.365963 63 61 91
-359.015512 37.245667 1062.319660 70 66 101
-359.015512 37.245667 1062.319660 70 66 101
581.273842 -290.076852 583.470345 83 81 111
-541.152287 -123.077881 1099.850750 39 83 66
-357.579851 32.035226 1062.063313 131 130 164
-527.595234 -110.059834 1097.782993 81 99 116
-417.525625 3.191996 1080.412579 139 138 170
-346.537662 37.348396 1059.589577 133 129 164
-521.297789 -99.232239 1099.100208 27 21 100
-391.338730 9.516523 1071.898270 92 92 132
-344.430828 47.274980 1061.918068 77 73 108
-357.547832 36.565000 1064.863491 126 125 159
-517.398548 -107.193232 1096.510410 115 115 179
-280.925131 72.070754 1042.075920 124 116 146
-265.965533 79.832792 1038.291264 75 72 94
-523.537970 -125.875556 1095.695210 50 87 71
-365.552568 31.398115 1068.568420 67 66 100
-402.579403 5.709876 1077.777958 94 90 125
-368.278003 35.367820 1070.939827 133 132 166
-307.537460 59.711957 1051.635742 136 129 162
-288.150263 72.154653 1046.571064 86 81 112
-517.208195 -94.015682 1101.857567 76 71 133
-305.752134 61.609107 1051.651859 59 53 84
-305.752134 61.609107 1051.651859 59 53 84
-271.959019 75.318229 1040.907001 132 131 163
-517.850018 -106.046295 1099.546909 39 36 108
-348.003197 38.457364 1063.934803 87 83 118
-520.049667 -95.430863 1103.711319 69 65 130
-408.084059 0.609856 1080.796909 90 87 119
-282.749104 72.887540 1046.310234 58 53 80
-250.294137 85.894507 1036.070251 100 96 121
-300.063372 61.736012 1051.207447 68 60 91
-300.063372 61.736012 1051.207447 68 60 91
-301.861572 60.398179 1051.983070 123 115 146
-335.799146 47.206697 1063.097191 81 80 112
-380.606365 18.226068 1075.171852 74 71 110
-420.719004 -1.805963 1087.479973 91 87 122
-247.115207 83.033484 1035.082340 152 148 173
-507.699633 -94.082606 1101.856899 71 67 119
-525.759935 -125.596142 1102.363968 47 83 66
-429.967785 -15.101588 1089.218235 100 101 129
-517.555428 -108.546305 1103.463364 29 28 78
-372.140265 26.257241 1075.089073 72 68 103
-284.015107 75.041324 1050.259686 134 131 157
-517.642975 -96.011037 1109.278107 72 67 129
-316.714287 56.686836 1061.344433 77 73 108
-519.722557 -108.771574 1107.607746 113 118 143
-515.385103 -111.981320 1105.239296 5 17 17
-515.385103 -111.981320 1105.239296 5 17 17
-368.758154 26.847026 1077.087212 92 88 123
-512.561893 -103.273940 1107.802010 90 80 150
-506.422472 -108.809614 1104.380322 47 49 89
426.601410 -220.949817 675.102377 173 170 156
-493.086767 97.133791 361.686182 141 139 128
-494.439507 134.937155 365.410686 143 142 128
-459.566689 131.991863 379.701447 101 95 90
-577.842140 -153.828239 320.151329 71 54 88
-583.109140 -153.708971 318.496609 71 54 88
-494.634008 124.103761 370.052457 106 109 100
-519.919014 60.171831 357.937598 147 139 126
-427.556419 145.269668 398.018050 63 66 97
-427.556419 145.269668 398.018050 63 66 97
-323.928666 184.609592 438.400173 58 59 85
-203.043127 -26.621759 464.029598 148 146 135
-588.877249 -127.065432 327.908373 86 75 83
-517.478085 76.989841 365.927982 154 148 135
-524.920511 75.204897 364.511156 199 191 178
-532.802200 77.264178 362.249184 199 191 178
-604.027748 -70.963264 332.402134 158 148 130
-598.999834 -57.032698 335.049295 249 239 222
-554.557562 -6.961937 353.455925 83 106 101
-595.972061 -126.737010 332.467008 84 73 81
-602.790499 -62.994742 334.272408 156 144 120
-550.770617 -11.617827 356.502724 158 165 160
-602.838898 -65.733886 337.189436 195 182 160
-312.390876 184.864485 451.716995 62 64 88
-595.107985 -24.657694 343.803358 254 243 229
-609.931993 -144.282222 331.066442 186 162 144
-603.133202 -75.086671 338.392138 211 204 189
-538.898373 18.937974 367.431378 186 190 179
-608.450508 -44.270036 340.230584 146 137 127
-540.686607 19.426173 366.974688 186 190 179
-598.283482 -26.967281 345.050001 64 56 43
-607.957125 -50.488770 341.412282 54 47 32
-610.454893 -65.131319 339.712143 191 177 158
-525.819492 91.202420 377.958035 117 113 102
-597.919559 -58.427614 344.826412 219 212 192
-531.045055 34.015840 373.404217 174 178 166
-616.584015 -131.732178 334.304190 252 244 221
-613.789463 -59.235126 340.200257 180 171 157
-612.443590 -70.961672 340.317392 145 130 114
-612.315655 -45.344126 342.295694 57 49 36
-616.107750 -55.620879 342.728734 207 199 176
-589.471531 12.305644 356.642199 196 189 174
-608.810282 -50.704610 346.231294 53 46 31
-354.953980 173.851216 444.100189 52 53 79
-519.011211 87.191421 385.113692 146 146 130
-607.402611 -43.021059 348.515344 59 51 38
-611.897230 -68.011087 346.096849 84 71 55
-616.627789 -47.717562 346.860600 166 161 146
-614.411926 -58.732063 347.160983 64 47 34
-539.679670 96.090043 382.829022 170 171 161
-542.497969 55.028647 379.769206 18 30 18
-592.903709 42.544043 364.672828 94 96 77
-522.575235 106.042242 391.669083 25 45 33
-595.144176 36.400300 365.429711 60 58 40
-539.476061 98.206908 388.620424 162 163 153
-598.518753 34.360468 366.472769 157 154 139
-598.518753 34.360468 366.472769 157 154 139
-535.395622 105.246484 392.118311 48 62 51
-331.755042 180.022073 471.947193 57 58 84
-638.873482 -132.505167 358.965158 187 174 148
-377.671599 152.898407 459.964418 52 53 79
-603.973866 39.558765 386.330032 92 83 73
441.765070 -206.826019 653.815269 100 92 102
-321.765327 176.718664 481.283236 55 56 82
-347.929049 174.314201 473.540688 48 51 79
-641.109133 -133.683217 365.629673 204 182 164
-632.820892 -77.823895 372.548556 142 134 117
-576.025963 35.004491 400.362921 56 52 47
-329.963732 177.018714 482.471037 64 64 88
-333.917689 177.481031 482.857227 66 66 90
-644.401598 -41.470644 378.348374 22 17 2
-637.362480 -57.028610 378.756332 216 212 193
-327.419686 183.656967 485.904694 46 47 73
-636.345816 -38.862807 381.379294 22 17 2
-582.373142 35.354465 402.871609 109 104 105
-645.534420 -40.363067 380.822182 178 170 157
-643.773270 -61.603421 378.063345 58 53 38
-644.403696 -126.109374 373.033905 249 238 218
-636.705351 -31.526035 383.300138 27 23 4
-641.983843 -53.328568 380.479002 43 36 19
-333.717275 173.760188 485.308123 64 64 94
-646.658421 -68.648881 379.757667 62 57 42
-646.658421 -68.648881 379.757667 62 57 42
-641.625071 -42.875433 383.481026 36 28 15
-640.318727 -66.378796 382.165670 74 67 50
-628.824949 -41.113931 387.639117 36 28 15
-642.681789 -58.826607 383.484769 65 57 40
-639.245272 -28.618166 388.130116 28 21 12
-642.496109 -56.829429 385.848832 206 192 174
-332.033205 177.540672 491.134644 48 49 77
-641.975784 -32.011828 390.704703 36 29 14
-631.540442 -47.565648 391.549897 185 174 154
-642.885017 -28.598228 391.450119 27 17 10
-652.539110 -104.896212 383.192444 62 66 91
-644.145727 -30.491456 392.224908 98 89 80
-582.731295 81.145602 419.394970 1 1 1
-642.900515 -29.187432 395.272470 73 58 55
-362.008834 165.076637 487.645578 93 95 125
-647.734547 -28.368455 397.882962 235 229 200
-395.804143 161.667490 480.964422 68 69 97
-361.569214 171.607840 494.488382 55 57 87
-586.192656 85.942012 432.360554 69 70 68
288.690567 -176.781821 631.632948 246 238 221
-368.653274 163.280094 495.179415 64 66 97
-362.720490 166.540539 497.709846 52 54 84
-636.960077 40.318933 416.706228 25 23 29
-636.442900 25.376377 417.136669 55 48 39
-665.580845 -76.315296 402.140284 51 54 69
-667.606306 -125.453913 401.448965 185 164 143
-372.362733 161.887014 500.220346 107 107 137
-375.155210 159.927773 499.373817 59 61 91
-366.635036 161.880565 502.183247 52 54 85
-349.383759 169.308162 507.987118 69 71 102
-667.132282 -65.366691 409.417677 65 61 43
-336.559057 170.311272 513.094854 63 65 96
-592.287159 -70.544815 426.704359 80 74 61
-672.242928 -161.726296 402.862072 84 71 79
-356.155133 161.101878 508.604097 57 59 90
-665.185118 -56.854528 414.118862 185 177 160
-665.567112 -43.991113 415.422869 31 28 14
-667.287493 -58.608639 415.059185 67 61 42
-662.561417 -30.489239 420.040369 24 23 9
-667.646790 -46.252462 418.038034 36 27 18
-667.646790 -46.252462 418.038034 36 27 18
-668.669367 -56.881255 417.010450 180 174 155
-366.844821 161.255419 509.532690 47 49 80
-673.362541 -58.098584 417.440748 80 73 54
-374.243736 157.978940 508.211994 64 66 96
-670.007467 -57.108021 420.207071 181 175 156
-670.007467 -57.108021 420.207071 181 175 156
-668.497467 -46.691284 421.447897 30 23 8
-674.600077 -40.191677 421.620893 37 29 12
-674.600077 -40.191677 421.620893 37 29 12
-672.848082 -53.718621 422.109079 61 51 34
-365.807176 164.679873 514.693880 47 49 80
-677.966547 -158.911550 413.295460 83 74 95
-644.100666 -45.924860 429.486322 155 146 132
-354.869795 165.896988 518.403149 65 67 97
-661.391544 -30.000445 429.554319 169 160 147
-496.456623 125.633216 482.764006 128 121 136
-325.157690 170.072901 526.884604 52 54 84
-654.709864 -26.983663 434.030676 57 52 49
-320.851326 175.366843 530.511379 120 123 151
-642.764854 4.878037 442.473459 141 136 121
-450.063276 130.339861 500.238609 145 148 179
-450.063276 130.339861 500.238609 145 148 179
-401.479340 148.764551 512.908792 66 67 93
-418.770456 145.943308 512.694597 70 71 97
-149.622619 60.432148 565.666437 35 43 43
-151.224184 61.187506 565.514326 35 43 43
-182.743704 25.303662 557.428598 79 76 98
-176.487565 28.007534 559.332705 113 103 120
-695.012569 -109.653258 436.670923 112 103 99
-534.181070 102.107072 494.431210 45 43 42
-718.678236 -161.213839 431.432438 210 186 164
-176.884663 17.475252 564.219999 197 176 125
-176.405895 28.889000 568.204403 232 212 195
-169.791210 48.740110 571.735716 171 182 186
-671.363783 -154.860497 450.961208 85 76 63
-304.477715 171.105647 556.570292 58 63 78
-299.556375 170.516241 557.540178 223 229 240
-161.882007 39.367217 572.850752 50 76 112
-544.867420 107.556260 502.937889 194 186 169
-618.392992 67.959321 487.869167 54 60 59
-182.679760 21.858115 570.099068 237 218 203
-483.863592 122.903848 520.778942 139 137 157
-483.863592 122.903848 520.778942 139 137 157
-154.344833 46.242157 578.379536 162 159 154
-551.188612 104.749882 509.740925 223 214 205
-198.634124 15.732203 569.626951 90 90 120
-150.612688 41.734073 581.496763 235 230 209
-684.556818 -166.429710 460.414839 255 246 229
-168.057311 38.250828 585.013151 97 93 75
-192.693174 31.402335 581.526089 255 254 235
-136.369205 42.969447 593.284798 213 214 212
-185.480189 31.252089 583.440161 200 174 160
-554.476547 87.703925 527.558470 42 45 43
-161.019671 43.693474 591.899395 218 217 203
-712.098598 -124.236834 480.948973 36 52 35
-697.275496 -55.834877 491.404343 36 44 33
-718.960667 -149.911368 479.375458 102 92 85
-718.010569 -140.090477 485.566759 218 213 192
-190.488493 28.671587 589.880610 177 168 148
-225.282764 16.774291 584.413576 113 111 131
-713.902521 -130.917180 490.766859 57 63 40
-723.684502 -137.614083 488.906860 20 13 4
-130.752313 63.854474 605.399895 129 138 135
-179.386592 24.840209 595.200491 191 181 164
-155.523646 30.400294 599.917173 133 124 111
-175.965428 25.845456 596.476364 204 198 179
-175.965428 25.845456 596.476364 204 198 179
-709.431982 -156.671500 494.533634 219 215 191
-693.218517 -10.816076 512.755251 33 41 31
-695.975399 -10.337342 512.496853 33 41 31
-218.365121 27.823302 590.860415 185 128 103
-155.510044 31.996602 601.399755 117 101 95
-202.168679 25.567916 593.613529 248 247 219
-184.398866 20.949915 596.782064 146 130 107
-132.552958 67.668855 610.122013 85 93 92
-173.673570 24.244070 600.944424 191 184 165
-165.204489 26.621816 602.489710 189 180 160
-149.678552 35.436741 606.931067 159 164 162
-172.054529 26.408389 602.758121 168 158 140
-178.712678 22.242117 601.294327 185 179 160
-153.554177 35.072660 606.481695 172 176 171
-217.533994 26.064843 597.103882 58 36 25
-717.545748 -119.130170 509.557629 70 73 48
-739.066410 -145.480728 504.470205 196 185 165
-719.053364 -123.438728 509.811401 165 161 136
-708.738947 -172.166491 507.758331 238 224 205
-585.994720 83.377337 553.169584 236 234 224
-735.432291 -168.239701 504.662752 160 144 131
-714.226103 -111.026466 515.002918 57 65 35
-162.878370 26.071671 608.245039 76 69 49
-126.130736 61.273080 617.352724 72 77 75
-716.514587 -113.406062 515.632200 225 230 201
-124.113059 39.033028 615.449095 40 44 45
-720.976830 -166.759062 511.320925 170 156 137
-600.795937 82.676220 555.455494 106 113 106
-588.564825 71.432418 557.360220 41 53 47
-722.603655 -168.565357 514.712572 251 236 217
-169.348872 3.952190 609.079647 154 158 152
-633.097744 22.729822 551.034689 48 96 67
-642.366362 24.530518 550.387526 48 96 67
-580.211926 75.763446 565.539885 198 193 178
-587.556934 73.877859 564.410448 216 216 204
-611.343622 70.411301 564.855051 41 54 46
-602.228498 71.017301 567.535734 215 219 208
-728.146839 -114.309847 531.077385 36 49 25
-728.663301 -116.738534 532.361412 217 225 202
-596.032572 74.947333 570.525122 198 191 174
-200.964379 -11.681251 609.429359 66 76 76
-138.055694 21.666877 621.317339 77 69 62
-728.899765 -118.318415 533.821201 115 122 95
588.175774 -265.403962 664.300394 59 72 70
-224.470472 -15.422089 608.246565 252 242 225
-726.613998 -124.137545 536.390209 255 255 246
-160.241508 4.573061 619.044065 5 0 0
-180.292404 -6.965286 616.273499 195 206 203
-728.657770 -114.586067 540.200710 109 118 85
-694.657993 -99.571747 545.867062 121 130 110
-107.330227 25.789630 629.387569 224 216 199
-713.346291 -78.327090 547.255325 86 95 82
-709.827089 -122.354901 542.972422 255 255 243
-164.023101 15.020299 622.149467 81 79 68
-171.814287 -6.281459 618.888330 96 108 102
-715.275526 -100.397968 546.028233 41 50 30
-165.097761 17.691307 623.344851 92 90 79
-711.533499 -68.404377 552.479982 96 105 92
-711.533499 -68.404377 552.479982 96 105 92
-194.786870 -22.979115 616.155148 138 153 155
-163.621736 18.529987 624.789619 70 68 58
-125.983751 36.299506 631.222916 57 53 52
-132.070446 23.172316 629.289436 97 87 69
-183.039677 -16.116358 620.585346 140 162 168
-133.931398 22.575526 630.431175 194 196 176
-197.530568 -24.724194 618.466854 72 87 89
-197.530568 -24.724194 618.466854 72 87 89
-723.593664 -90.250570 554.453468 71 78 65
-125.864649 22.628094 631.784725 172 165 148
-734.846354 -79.964608 555.666018 72 80 63
-197.063172 -27.218619 618.981171 64 79 82
-188.307357 -23.539340 620.477533 88 100 100
-175.243735 -16.093126 623.084354 178 196 203
-724.075174 -85.205114 557.321835 63 70 55
-166.210544 -6.260149 625.407743 129 136 133
-599.372625 61.354011 588.127470 201 191 173
-599.372625 61.354011 588.127470 201 191 173
-199.241614 -26.390806 620.195723 133 148 151
-224.808574 -29.033533 618.085527 75 77 65
-127.085531 20.132302 634.028244 105 118 96
-639.003181 44.008169 584.531593 73 86 78
-128.825843 21.921013 634.590816 170 172 152
-201.368284 -30.183724 621.302891 185 193 200
-660.389137 34.875572 583.934879 0 15 2
-724.282312 -110.809422 561.001730 183 183 159
-655.282164 37.353048 586.324072 74 91 82
-725.427580 -107.351458 563.694954 106 105 77
-736.364031 -93.683898 565.049362 54 63 37
-723.057652 -85.538268 568.095636 80 93 71
-724.123430 -104.319489 566.868448 113 109 90
-650.646639 40.974998 592.966127 52 69 60
-661.209011 36.818671 592.438984 44 61 52
-164.002764 -12.450787 632.656717 170 176 171
-158.778584 -5.852737 635.597563 142 149 142
-657.613182 44.096163 597.641468 52 72 60
-154.223764 -1.203596 637.567711 171 167 156
-137.596333 11.439139 640.804482 24 17 8
-288.953447 -24.955299 623.696470 242 235 226
-161.554921 -5.269960 637.679529 175 182 169
-166.371369 -9.152211 637.648344 139 147 137
-749.731588 -81.311542 581.521606 27 43 19
-118.080521 19.081740 646.015453 255 255 244
-157.826126 -3.714148 640.202475 105 109 98
-747.957802 -88.242358 584.355116 79 83 54
-133.271945 8.915249 645.599127 198 196 196
-121.828508 15.361093 647.398996 74 80 79
-178.646612 -32.447717 637.195110 68 71 69
-174.011493 -32.582688 638.012075 245 254 255
-174.011493 -32.582688 638.012075 245 254 255
-132.831287 16.689199 647.756052 148 137 129
-756.910801 -86.543500 587.085295 114 119 92
-157.631731 -15.504472 641.875553 133 137 131
-178.998351 -35.565841 638.007736 67 66 62
-177.185690 -32.547653 639.511824 142 206 217
-133.682740 7.358871 647.906590 0 104 233
-168.477511 -28.631133 641.069317 71 82 80
-161.739373 -17.110680 644.188023 53 59 54
-185.714066 -41.410404 639.822817 141 139 138
-660.417366 50.729305 618.538141 206 197 183
-156.280684 -14.647061 645.863008 103 106 104
-728.934288 8.010565 609.688759 102 110 99
-169.828248 -30.917591 643.564367 85 94 97
-660.362577 22.956303 618.276167 185 202 188
-135.010612 -1.290415 650.826454 30 14 8
-748.798943 -76.591814 601.417637 72 99 66
-220.727468 -48.735458 640.148211 123 117 104
-134.417844 14.649497 654.073858 66 155 255
-163.408244 -22.950259 647.612095 137 141 135
-705.391932 7.607823 617.495203 7 15 5
-720.380926 10.254126 617.481995 7 15 5
-160.963595 -22.622921 649.352264 77 82 73
-737.554932 9.310538 619.382000 239 252 244
-743.159437 7.909797 621.698141 1 12 4
-673.355389 40.214440 630.102444 243 247 236
-110.533726 10.113429 659.296274 255 253 255
-120.513237 20.671020 660.469055 63 61 61
-144.987190 13.862741 658.302736 250 247 255
-778.289652 -78.778106 611.418962 28 68 50
-768.262815 -85.277700 611.437035 46 85 77
-786.013174 -109.827328 611.131001 252 255 253
-145.209563 12.961584 662.010765 240 181 196
-145.698059 2.371493 661.320639 4 0 0
-774.234438 -94.369578 623.028564 238 250 252
-110.199189 33.611372 669.451189 107 112 111
-158.372235 -20.442472 660.591412 59 70 68
-159.932661 -29.358369 659.819508 90 93 91
-160.428107 -27.932000 660.399199 158 161 159
-778.625631 -94.073564 626.843929 116 114 103
-628.702116 14.093763 647.902250 124 132 145
-180.631566 -23.194300 661.489058 90 93 91
-736.200333 0.861400 644.860077 251 255 251
-706.643581 28.930369 649.989319 124 132 145
-776.412296 -91.393197 631.577349 250 252 246
-769.979191 -85.754657 633.621359 243 251 251
-160.862660 -29.069477 664.017057 68 66 65
-776.854086 -36.782396 641.782665 127 141 135
-722.308350 -160.768414 628.412914 59 56 48
-716.218948 -119.936717 634.118986 239 228 201
-712.803888 -132.930088 632.864332 62 75 43
-159.366941 -33.992702 664.799595 164 163 159
-750.814772 -3.213355 649.697304 250 255 251
-152.294338 -25.849342 666.302586 102 107 105
-713.581228 -148.986459 632.071733 242 246 235
-718.841362 -184.722018 627.096891 127 136 116
290.932536 -177.756929 659.953928 55 67 91
-766.854429 -37.432998 645.988750 46 54 47
-720.725870 -179.833090 629.633331 247 251 245
-723.618317 -171.723199 631.672525 51 57 40
-761.037636 -41.756418 648.521233 128 143 152
-753.423071 -7.725083 653.801441 239 255 242
-122.279394 9.919217 674.371576 13 8 5
-124.099684 12.035388 674.725962 179 180 176
-247.488856 -114.161682 650.605869 244 251 246
-710.867929 -151.174712 638.087702 56 79 41
-756.790638 -24.440955 655.488491 57 70 96
-158.946967 -32.721084 671.422195 162 136 176
-155.956686 -31.924886 671.768856 255 244 255
-710.155010 -198.433316 638.989449 83 99 75
-704.783392 -147.062683 648.277569 86 102 84
-772.051287 -17.653485 666.495657 154 190 168
-758.239508 -51.330823 662.890911 76 90 118
-716.861010 -130.021858 652.721262 17 32 11
-712.723780 -117.235839 654.644537 23 42 49
-164.386380 -38.460863 674.477959 53 50 45
-758.278275 -50.827360 665.654421 32 49 68
-769.189978 -68.791097 663.269234 129 133 127
-769.189978 -68.791097 663.269234 129 133 127
-718.493080 -194.181383 646.593189 29 31 19
-142.996955 0.324951 681.441116 132 127 5
-162.237561 -40.466988 675.527763 59 54 51
-716.114426 -134.225070 655.635834 19 34 13
-753.151703 -47.574419 667.285204 45 61 68
-121.024537 7.309335 682.905960 114 104 97
-165.752387 -45.839041 675.095987 88 206 207
-141.136312 3.475571 682.293749 119 160 182
-715.074873 -149.607313 654.116726 19 36 15
-724.687290 -178.087115 650.104666 191 191 167
-153.956914 -17.976968 679.871511 193 190 176
-766.717863 -66.650522 667.456293 253 250 246
-732.753277 -115.780842 661.387205 90 122 145
-169.699013 -52.873832 675.861406 255 254 240
-758.365631 -27.038267 674.172878 46 69 47
-724.827909 -193.137705 651.251173 54 49 40
-747.654915 -57.535398 670.693493 64 92 123
-761.434984 -20.481497 676.461506 52 83 56
-111.384344 12.506871 686.311007 40 45 44
-712.365437 -183.512831 654.090595 255 249 222
-157.131541 -26.703236 680.643225 92 85 76
-767.934847 -27.815661 676.185513 108 141 126
-162.375998 -37.515661 679.592419 62 59 54
-170.193934 -50.002593 678.256035 110 116 123
-723.379612 -182.106066 656.816673 73 87 53
-148.347974 -19.353659 682.858610 107 103 98
-148.347974 -19.353659 682.858610 107 103 98
-758.008575 -12.461135 681.011343 79 141 101
-770.183039 -24.985658 679.780674 53 71 54
-743.474627 -10.108688 682.276440 200 227 211
-711.134434 -96.512830 670.415306 95 117 115
-165.078533 -41.740489 680.486965 59 47 53
-152.136350 -20.497638 683.877516 183 181 170
-775.942135 -27.190751 680.997753 79 108 92
-159.660041 -35.221767 682.372713 119 114 105
-158.482528 -31.200877 683.400631 66 49 40
-705.458164 -190.732551 659.999275 250 252 246
-143.244398 -21.447986 686.614180 30 28 28
-760.359907 -61.485565 682.495403 52 88 106
-169.362116 -48.609304 683.230591 64 65 55
-139.343655 3.325764 690.710306 169 153 146
-140.265656 -1.886689 689.998817 189 194 65
-769.916964 -24.816123 688.425827 93 131 103
-163.050210 -41.821674 684.491730 142 142 130
-163.050210 -41.821674 684.491730 142 142 130
-156.275523 -31.552863 686.051846 80 48 42
-143.122482 -2.263181 690.399456 182 181 71
-704.781961 -191.467702 668.666983 37 55 24
-669.499063 11.087658 697.620058 174 171 156
-762.670946 -30.564758 693.702698 19 39 27
-707.367849 -174.051762 672.780180 71 86 72
-708.320618 -153.244984 676.267862 51 66 52
-170.581853 -47.757420 687.224960 122 116 109
-737.546444 -184.806013 674.199390 21 41 18
-135.715592 0.801050 694.892311 171 168 163
-159.687340 -36.175692 690.442371 119 85 79
-779.763556 6.094743 704.243088 236 243 222
-170.507467 -44.582030 689.848089 77 72 63
-729.776096 -18.555333 701.039267 237 255 244
-730.059433 -126.210022 687.391710 4 37 22
-158.497596 -33.569854 693.029881 190 177 169
-161.820364 -37.799820 692.553473 255 255 254
-759.168673 -31.663465 703.106880 124 153 137
-124.309909 7.464530 698.860550 207 212 210
-111.682320 7.468627 699.438572 115 119 120
-694.131184 -193.499947 680.265760 79 100 75
-173.523808 -3.709726 698.905373 10 10 10
-703.494978 -171.894586 684.641409 18 28 11
-146.059024 2.091466 700.048447 178 190 192
-725.496721 -134.069359 691.714573 26 39 23
-769.178724 -71.082753 701.927948 68 108 97
-636.275721 8.419174 711.281157 167 170 168
-133.325744 -1.551318 699.986744 163 168 166
-761.285019 -28.567210 708.612919 77 113 91
-701.715660 -170.190144 687.015247 81 95 77
-701.715660 -170.190144 687.015247 81 95 77
-729.623890 -155.041885 692.176151 16 26 14
-702.669048 -168.615651 689.559984 9 20 4
-727.404308 -137.039042 697.514820 25 37 17
-733.873463 -131.685758 698.764086 22 39 28
-160.481751 -35.062689 698.991728 214 195 174
-151.728535 -2.693661 703.730345 25 37 107
-760.770273 -53.853750 712.615252 59 88 73
-732.148409 -26.664600 716.593218 37 43 32
-722.225809 -156.031549 698.212814 103 108 93
-722.225809 -156.031549 698.212814 103 108 93
-109.616101 2.873844 705.320120 147 151 152
-143.512166 -3.518590 705.502319 52 60 183
-144.116378 -1.476125 705.983639 60 66 125
-130.750704 -0.671906 705.937195 88 23 25
-130.750704 -0.671906 705.937195 88 23 25
-763.722658 -40.846419 719.208527 21 30 20
-111.269975 -0.212408 705.549145 201 206 207
-730.942726 -158.204329 701.699257 35 44 31
-730.243874 -161.065221 702.330971 80 90 78
-738.852406 -16.960540 724.590254 48 48 36
-738.852406 -16.960540 724.590254 48 48 36
-743.263817 -146.467614 705.672836 233 233 215
-693.060255 -2.523503 728.235292 153 159 148
-147.177184 0.244395 709.543085 152 168 175
-168.069649 -47.631016 703.543091 94 84 74
-152.784669 -30.592951 706.103039 203 197 184
-108.625531 3.116659 709.556198 118 122 123
-672.084188 -16.580343 727.782631 219 213 194
-757.258654 -31.458667 729.262018 85 123 93
-690.926075 -26.459041 727.933550 255 255 247
-761.785078 -43.532723 728.157854 9 6 1
-120.180082 49.779934 717.688274 122 127 128
-136.929846 -30.739054 706.473875 240 224 208
-682.316351 -5.246707 731.818199 73 71 63
-154.514956 -7.588372 710.921335 9 6 32
-784.800577 -108.609366 721.436691 104 112 89
-144.447410 -35.339051 707.051134 171 164 145
-133.567047 -23.436223 708.596611 116 107 104
-778.011560 -130.483687 719.196653 13 21 11
-131.108761 -25.204787 709.406996 19 10 7
-782.752037 -92.357874 728.111362 174 181 160
-782.752037 -92.357874 728.111362 174 181 160
-170.565295 -47.316489 708.197069 151 139 135
-783.852005 -95.908254 727.804041 208 214 197
-771.208429 -76.077104 730.285120 33 47 35
-677.262497 -23.651689 734.583330 64 47 38
-730.110407 -136.517835 721.494865 5 5 0
-703.111649 -167.963994 715.592241 0 8 0
-737.771177 -142.872739 721.553707 20 22 10
-664.325047 -19.205832 737.076378 59 51 44
-719.358969 -195.297694 713.194752 43 38 17
-722.292137 -207.233667 712.733650 240 236 225
-768.556356 -84.904248 734.116554 47 59 53
-777.350521 -77.151251 738.562012 144 151 146
-660.320139 -16.914123 742.235661 69 60 56
-660.320139 -16.914123 742.235661 69 60 56
-128.759646 -3.055982 717.353821 196 197 195
-728.921843 -161.381853 724.016094 10 19 9
-770.301962 -72.803587 739.909267 13 17 11
-203.560090 -71.465397 711.508656 109 120 152
-129.491425 -6.442234 717.635918 144 135 132
-129.491425 -6.442234 717.635918 144 135 132
-726.922464 -33.397943 747.094202 241 252 244
-733.294868 -94.136971 738.527536 79 86 79
-725.036383 -27.520454 749.300528 230 243 227
-742.038393 -52.981639 746.523571 132 134 134
-107.771838 29.238501 723.841190 38 47 50
-107.771838 29.238501 723.841190 38 47 50
-791.303635 -57.220149 749.315548 172 166 161
-775.320578 -55.361587 748.823309 255 252 250
-694.793272 -52.143407 744.822645 163 185 180
-118.112397 59.900022 729.491282 59 68 72
-116.358292 44.667929 727.173138 57 65 65
-118.698835 52.843380 728.947735 76 83 86
-118.727672 55.478156 729.535103 98 104 109
-715.061665 -191.133785 726.218128 48 55 34
-130.912042 -13.075845 720.411110 91 84 81
-133.559966 -6.205170 722.360039 54 47 44
-161.707437 -35.681728 719.587326 189 179 155
-125.405967 -17.616014 720.695257 35 30 27
-718.220139 -203.646088 729.447412 255 255 249
-694.827795 -40.782064 754.831171 16 33 19
-162.817657 -35.798836 721.604729 95 86 66
-122.442746 -27.403793 721.779251 58 45 47
-109.996665 -0.530288 725.302315 121 126 125
-742.515469 -102.692389 752.673912 25 28 19
-206.661415 -57.959056 725.331450 120 111 124
-184.194517 -47.711468 725.483847 116 108 101
-160.294175 -33.332488 726.066637 113 111 87
-125.989509 -35.074586 723.723555 248 229 216
-776.557446 -120.537686 757.697487 58 67 70
-178.110087 -46.789092 726.003695 130 119 111
-635.104990 -13.684177 764.911699 13 19 18
-179.498637 -49.054903 725.924540 193 186 183
-151.607442 -35.854933 726.608324 83 80 59
-755.042219 -110.996258 759.666634 28 32 26
-626.709032 -12.051386 766.941118 195 203 202
-216.077971 -61.798120 728.988695 65 72 99
-753.552771 -94.735700 765.110397 173 187 193
-753.552771 -94.735700 765.110397 173 187 193
-197.960758 -57.275516 729.670238 126 82 141
-761.709023 -128.335333 763.238907 18 22 17
-120.637608 -14.305376 730.544043 94 76 117
-120.637608 -14.305376 730.544043 94 76 117
-126.719105 -8.555152 733.124638 202 199 195
-192.650235 -54.594260 731.929827 126 77 151
-634.955311 -14.795709 775.498772 61 66 69
-102.914739 23.406014 737.537909 38 41 46
-102.914739 23.406014 737.537909 38 41 46
-172.004592 -41.941854 733.014822 82 72 65
-121.706057 -16.834605 733.938789 189 183 178
-124.541509 -38.582852 730.855799 89 55 155
-121.882236 -32.010862 732.045126 194 172 201
-106.356645 22.673255 739.944839 27 30 35
-775.571918 -132.491684 774.364090 20 23 21
-105.253065 -6.280063 735.503626 168 175 172
-166.714799 -44.444066 735.100508 182 173 176
-777.610493 -90.453744 783.336735 204 216 204
-636.681843 -20.952936 785.916138 6 5 9
-643.160295 -25.911635 786.193800 163 162 158
-643.160295 -25.911635 786.193800 163 162 158
-189.877534 -41.942796 740.978336 8 0 10
-134.211576 -35.836196 737.252045 54 44 44
-776.468897 -72.467786 792.824221 211 222 212
-231.935024 -76.308984 740.302992 32 13 56
-125.622690 -33.760247 737.321758 254 249 248
-789.224720 -94.236612 792.460775 217 228 218
-768.530560 -90.190262 792.226744 24 31 24
-647.340012 -24.242058 791.300774 32 33 31
-152.759957 -37.119746 741.304541 68 61 58
-783.959579 -117.076552 791.565609 65 70 61
-128.390324 -18.291555 742.529440 10 16 11
-786.471987 -100.876892 795.427227 156 165 169
-122.879171 -39.202687 738.639832 40 45 54
-792.048359 -122.576177 792.922592 156 157 155
-783.742952 -118.186045 793.709803 210 214 209
-783.742952 -118.186045 793.709803 210 214 209
-683.606625 -24.809438 799.594402 0 3 1
-115.508747 54.496086 754.313755 136 141 139
-123.432589 -19.404384 743.078661 88 102 98
-774.263716 -109.439230 795.330572 192 198 187
-104.659998 -7.144684 743.326664 65 69 70
-766.273451 -66.009372 802.145004 94 113 110
-782.963610 -132.599366 796.207142 179 198 173
-763.329744 -129.395854 794.819641 46 68 50
-654.004765 -23.968998 801.016903 80 91 88
-213.177705 -61.972231 748.540783 151 64 216
-780.321598 -114.082348 801.476192 230 242 224
-786.695528 -74.000567 809.908581 21 29 28
-776.273394 -118.072426 801.799679 48 63 42
-119.431865 -25.122595 745.403147 210 235 225
-708.320189 -56.181777 806.732845 232 252 240
-781.301165 -103.231668 807.020283 47 62 48
-711.743593 -55.767930 807.327175 232 252 240
-775.172853 -126.700294 803.105259 27 42 28
-130.393338 -40.705797 745.349169 162 177 233
-106.474316 -8.414401 748.274755 58 66 66
-120.698869 -25.344619 747.316647 40 51 49
-114.892018 -25.794184 747.401953 91 83 84
-753.577280 -55.014265 816.236019 72 90 91
-220.114589 -67.508453 754.977226 170 52 255
-119.050097 -38.912904 748.623133 41 27 31
-756.913519 -77.710968 821.013069 77 83 78
-117.141044 -26.787636 752.973175 41 41 65
-114.125741 -32.225442 753.486347 38 14 14
-780.420160 -61.193764 833.983612 156 152 127
-760.045195 -118.412447 822.586918 46 67 45
-115.215623 -25.231519 756.472492 44 45 41
-185.605848 -34.751761 764.181757 136 51 219
-117.161858 -13.864549 759.260035 110 98 94
-767.205334 -59.118986 839.085865 61 97 75
-176.886261 -43.827879 768.061447 252 242 255
-170.888937 -43.440047 768.805790 68 63 90
-761.401224 -83.360618 848.190689 6 17 9
-769.692469 -87.151885 848.965073 5 10 8
-769.692469 -87.151885 848.965073 5 10 8
-144.832551 -31.853333 770.106411 32 41 50
-755.100584 -85.621232 853.078175 78 110 86
-149.608850 -32.912847 771.534491 94 94 110
-106.703818 -15.300719 770.880032 75 80 79
-765.399456 -90.237200 861.822796 16 44 25
-120.035434 -18.949875 773.081303 224 222 234
-105.980122 -13.199705 775.610924 98 102 103
-776.079702 -105.103362 883.438969 84 94 88
-139.781618 -22.097221 791.301298 31 47 160
-119.891202 -21.507782 789.216900 191 200 220
-111.663592 6.113398 792.875814 49 53 54
-264.757061 -50.074446 811.780643 221 220 222
-116.640949 32.735440 799.728584 50 53 57
-120.121038 -22.128853 791.184807 237 249 255
-114.507973 -21.194093 792.111826 127 134 137
-120.199585 53.542674 811.101151 151 152 150
-741.345596 -130.175626 903.183460 44 63 48
-741.345596 -130.175626 903.183460 44 63 48
-679.657364 -221.017528 876.097107 66 77 67
-112.471080 -17.598155 799.829149 34 40 45
-714.275551 -80.583900 917.069817 227 242 234
-489.254093 -23.430142 880.575752 92 99 96
-676.278114 -231.345963 880.889225 6 19 5
-112.718129 -21.210243 801.676750 69 75 80
-729.418039 -115.279293 916.896152 243 254 244
-718.605280 -81.050646 924.408913 0 3 0
-339.942861 -46.425071 854.006004 137 144 141
-546.575212 -3.575829 918.012428 146 153 150
-483.902168 19.575050 911.260509 85 87 121
-242.452192 105.757964 870.949841 208 255 255
-242.452192 105.757964 870.949841 208 255 255
-242.564797 104.996789 873.170853 9 40 43
-416.613293 38.839886 903.645992 68 70 100
-437.129211 34.955090 908.448887 76 77 115
-237.551475 104.315782 873.436165 95 202 210
-237.724686 106.592393 874.632835 27 56 71
-271.315312 96.163023 881.538391 57 57 75
-411.086798 39.997590 905.314064 75 78 106
-235.543966 106.118405 876.956081 83 167 173
-235.543966 106.118405 876.956081 83 167 173
-702.136040 -94.018257 954.295826 241 255 246
-456.322527 22.178280 916.625977 98 99 137
-293.870425 75.195587 886.770725 67 64 96
-293.870425 75.195587 886.770725 67 64 96
-387.834859 47.612607 905.048275 155 157 187
-353.886485 61.353517 904.508686 55 54 86
-479.213238 13.814494 927.995491 88 90 125
-365.312457 53.043514 907.549572 131 129 165
-410.462809 37.114602 916.124058 74 76 106
-306.202579 77.676910 897.871399 60 56 91
-306.202579 77.676910 897.871399 60 56 91
-389.777303 41.696143 912.582111 89 92 120
-310.809302 75.217170 899.935627 46 48 78
-369.803834 52.791208 911.360168 78 77 109
-722.181177 -185.591567 957.001877 47 71 53
-234.370041 103.768635 886.718178 112 100 112
-269.487262 89.066184 893.752480 58 59 80
-420.824432 30.297053 922.332668 77 76 110
-433.973885 31.035364 926.097012 136 134 170
-297.750330 77.813977 902.206039 48 44 79
-360.955763 55.893391 914.861870 74 75 109
-256.812811 96.933848 897.525311 62 58 77
-415.283823 34.646910 928.316021 81 84 112
-292.375731 81.778657 904.973793 164 159 188
-292.375731 81.778657 904.973793 164 159 188
-330.293775 67.275906 914.126015 85 85 115
-355.878878 60.662436 920.645142 68 67 101
-366.409540 54.829305 925.685215 131 134 165
-361.212468 51.562560 925.220680 79 81 112
-361.212468 51.562560 925.220680 79 81 112
-334.824038 61.813664 919.978714 65 64 96
-301.940751 79.161090 914.900494 54 51 83
-359.170651 53.012675 926.571465 70 69 103
-359.170651 53.012675 926.571465 70 69 103
-389.215183 37.575430 933.674240 136 135 169
-440.631008 21.001422 946.133327 89 90 128
-326.662803 64.644885 922.943306 63 62 94
-258.897734 89.568353 909.848976 74 71 93
-672.775412 -107.163393 990.518093 0 28 9
-672.775412 -107.163393 990.518093 0 28 9
-348.824787 55.480981 930.722141 61 57 92
-367.816353 46.989805 935.010338 59 58 90
-457.187271 11.653937 954.214859 76 81 114
-457.187271 11.653937 954.214859 76 81 114
-309.944224 68.829077 924.751949 110 110 140
-326.187515 61.395359 928.215504 129 128 160
-312.325168 67.493808 926.092529 43 43 73
-677.986050 -106.380165 998.838615 61 91 66
-685.191536 -111.882353 1001.464748 0 17 4
-292.090535 71.192837 922.657585 57 53 88
-286.158967 77.758676 922.689915 64 59 91
-396.642327 33.467093 946.762276 68 71 99
-355.074477 48.765528 938.307762 66 65 99
-327.227545 60.586101 932.441807 127 126 158
-275.407600 82.439452 922.408390 51 48 73
-389.424896 34.765887 949.842548 98 100 130
-393.945909 30.598220 950.659847 105 106 132
-237.260294 95.934588 916.219521 53 49 74
-330.035067 60.719943 938.541508 118 117 149
-321.462107 62.623191 937.819195 78 77 109
-656.907511 -94.307512 1009.214020 0 28 2
-676.773500 -113.533092 1013.430786 65 85 66
-682.820845 -116.824007 1015.247917 0 12 0
-356.968617 51.153445 948.708439 125 127 158
-355.397463 41.363198 949.999428 128 130 164
-309.130168 65.061057 940.942669 54 51 83
-286.034226 79.445535 937.393475 87 85 115
-469.448519 3.975479 980.822659 90 92 126
-352.140784 46.134633 954.490566 135 138 169
-309.618926 66.228920 946.632957 128 126 156
-275.839615 77.092564 938.562775 70 66 95
-275.839615 77.092564 938.562775 70 66 95
-344.261909 50.745201 956.690025 67 66 98
-344.261909 50.745201 956.690025 67 66 98
-450.153542 2.115730 981.401443 88 90 124
-320.795918 58.962476 951.936150 66 65 97
-320.795918 58.962476 951.936150 66 65 97
-315.812325 62.019092 951.595974 126 126 156
-317.413044 59.178710 951.558018 56 56 86
-363.521218 43.712768 964.091969 58 60 94
-387.275839 27.465552 969.226360 87 89 119
-387.275839 27.465552 969.226360 87 89 119
-662.558031 -105.607629 1035.638142 137 160 152
-356.979704 42.275774 965.676212 131 132 166
-293.335462 69.840777 950.483894 130 126 161
-352.427316 44.214946 964.918613 62 61 95
-334.091473 57.539666 961.757278 124 123 157
-448.637581 7.367665 994.253254 84 85 123
-464.654827 -7.857776 997.478676 88 90 124
-324.475431 55.170411 963.159466 51 50 84
-303.033972 64.743835 958.812046 55 56 84
-395.003057 23.314498 981.736374 135 136 164
-239.730048 88.653362 942.358017 79 76 98
-677.050161 -105.412650 1051.507664 127 156 133
-668.587160 -118.802798 1047.671509 24 43 34
-321.778655 57.070756 966.728878 57 56 88
-577.400351 -62.126195 1030.557251 29 38 75
-281.168342 73.326069 956.794167 94 92 121
-577.213764 -58.641613 1031.715298 39 42 70
-375.004578 34.815297 983.052731 81 83 117
-579.634523 -60.090870 1035.976505 31 50 95
-383.438349 26.642397 985.603905 83 83 113
-307.873440 64.376515 967.178059 57 57 87
-576.383352 -66.403121 1035.680103 39 57 80
-331.756568 49.927366 974.312973 79 80 114
-235.999370 89.234132 949.121284 164 161 183
-232.148790 90.323067 948.084259 71 65 88
-577.662420 -64.937449 1037.972355 128 166 196
-652.415371 -130.147612 1051.513672 58 80 61
-311.258054 57.208413 970.977497 129 125 161
-232.735467 90.105695 950.006485 188 184 209
-258.770227 80.119675 957.363510 85 85 109
-468.280983 -13.404433 1014.405441 90 92 123
-229.451203 90.616977 950.932980 162 163 183
-342.107987 43.679503 981.729317 57 56 90
-589.965391 -79.542631 1044.691086 10 33 19
-308.097076 59.404880 973.401833 137 133 168
-220.181489 87.547404 948.496056 67 69 87
-561.909246 -50.834620 1043.430710 215 222 225
-338.246799 44.121876 982.730103 61 60 94
-98.482120 -28.824252 866.258907 93 94 128
-553.026295 -54.936999 1040.116215 46 53 56
-368.963170 31.347531 995.064545 66 67 101
-350.151992 37.752730 989.532566 63 62 96
-329.932976 46.047127 986.227226 66 65 99
-329.932976 46.047127 986.227226 66 65 99
-348.164797 39.019158 991.515160 55 54 88
-335.267949 45.543990 989.159012 134 131 170
-238.819051 84.177417 961.722469 97 95 117
-451.757717 -11.952950 1021.173573 90 93 124
-245.025325 83.703971 964.927197 87 84 106
-245.025325 83.703971 964.927197 87 84 106
-245.025325 83.703971 964.927197 87 84 106
-292.739081 61.096370 978.058720 83 77 108
-444.304228 -4.282600 1020.939350 95 92 141
-436.795568 3.904460 1020.108032 95 97 128
-240.758586 85.343742 964.745045 203 201 221
-231.152582 87.706101 962.301445 140 135 162
-348.162127 35.711846 995.903397 135 134 168
-348.162127 35.711846 995.903397 135 134 168
-259.672642 75.759125 972.203350 80 75 104
-236.562920 84.539211 965.533543 84 79 106
-231.316972 87.455672 964.383316 62 57 84
-231.316972 87.455672 964.383316 62 57 84
-357.069945 34.342608 1001.385117 46 47 81
-234.834290 86.216468 966.991711 79 74 101
-234.834290 86.216468 966.991711 79 74 101
-357.091427 29.963478 1002.166653 131 132 170
-389.782405 17.169996 1012.641907 129 127 156
-396.903348 10.524360 1014.017105 100 101 127
-346.163034 33.811358 1000.004673 71 70 104
-326.474571 45.108980 995.215988 82 81 115
-569.395399 -77.644533 1061.968422 18 25 64
-254.628396 78.105277 975.662231 160 156 181
-444.381285 -18.664803 1028.903580 134 136 167
-399.589992 10.301112 1018.592358 80 84 109
-378.058124 16.210614 1011.562538 137 135 164
-319.314361 51.898324 996.748543 146 142 177
-559.734821 -79.451990 1062.904930 37 38 88
