ply
        format ascii 1.0
        element vertex 12519
        property float x
        property float y
        property float z
        property uchar blue
        property uchar green
        property uchar red
        end_header
1744.124985 739.620829 2371.732903 37 24 22
-620.505810 -123.467433 814.114380 47 36 32
-626.837492 -109.859908 807.113647 56 31 27
-626.837492 -109.859908 807.113647 56 31 27
-216.065621 82.124269 1066.583824 60 36 30
-621.599245 -95.121592 812.629128 176 133 114
-621.457863 -283.242798 849.821663 115 72 55
-514.069366 191.455793 834.005737 12 12 12
-624.225044 -111.549926 815.240479 155 116 94
221.494389 187.701535 1368.319607 255 230 209
210.582829 209.812188 1350.905514 78 45 26
191.355038 208.494496 1336.830616 83 47 37
-199.997377 18.024364 1140.202045 120 72 60
-612.038136 -315.681434 868.502045 31 23 33
-524.866390 30.351070 862.606239 132 97 84
1689.653206 717.662621 2323.842430 42 26 20
-621.022367 -99.125397 819.766235 115 72 55
1677.630806 491.596794 2339.032745 24 15 12
-612.021780 -155.895948 841.399193 72 46 52
78.951180 206.150293 1333.967686 72 42 37
-612.038851 -152.280235 841.828632 145 113 94
-620.110321 -280.855370 862.754440 116 72 55
-544.791746 -191.553259 902.341938 120 72 60
-206.974816 20.595953 1098.954582 90 61 57
-621.481800 -97.606790 832.237148 112 69 52
-611.891794 -142.977095 848.177242 96 66 61
-620.240784 -260.187244 866.014004 168 124 107
1541.590309 705.981827 2207.180214 21 13 13
1548.209476 702.827406 2209.455681 130 84 60
-620.929098 -106.876147 841.156578 154 118 94
-614.666224 -82.678622 844.594860 66 37 32
-614.666224 -82.678622 844.594860 66 37 32
-524.753666 4.624420 891.124916 123 97 85
-523.953056 -4.307770 897.150135 46 34 34
-610.686922 -297.725272 913.624001 84 49 39
-555.595160 187.618136 857.038116 69 61 72
-554.719591 6.920139 896.800995 145 115 96
-515.278387 9.963065 931.070518 130 95 81
-605.701256 -112.887108 897.123718 25 19 20
-513.766384 19.237542 930.641747 145 115 96
191.142452 130.792689 1378.512001 79 45 39
-601.742935 -145.692825 917.808342 146 117 112
-608.346176 -260.129404 937.123871 67 57 63
-602.757072 -151.180720 919.190788 62 47 44
-602.055836 -174.599898 925.845432 157 125 112
-601.079845 -164.403248 929.577160 173 136 114
-598.952723 -167.699909 935.161877 143 114 93
193.925810 133.661425 1384.616756 79 45 39
-604.896307 -129.125535 925.780869 121 104 101
-602.784109 -156.936979 939.432907 118 88 77
-569.332409 -13.956471 930.943108 103 81 69
-640.824604 -25.162411 890.262985 123 92 77
-513.760090 14.312907 961.716461 130 97 81
-638.321733 -8.695788 889.974594 132 102 85
-601.991892 -157.404053 946.656322 44 38 39
-600.641394 -160.070038 950.063038 93 99 98
-598.970652 -154.305041 951.297092 84 89 88
-601.422596 -152.308667 950.048637 35 32 41
-576.401615 9.493805 936.784077 132 102 85
-604.442787 -295.769310 986.761856 31 21 27
233.682275 207.065797 1397.662640 155 114 91
-603.834867 -130.336285 953.219700 152 115 95
-609.814882 -241.261554 973.884583 168 126 107
-601.392937 -151.731372 961.882114 124 105 98
-611.898232 -77.753341 940.220261 132 95 81
-607.789087 -289.676642 988.902473 129 90 76
-598.281288 -158.533478 969.525433 83 91 91
-646.574259 -251.236987 960.674000 123 77 60
-603.052616 -123.922789 960.083485 89 107 108
-598.802328 -160.825706 970.574284 19 20 30
-598.802328 -160.825706 970.574284 19 20 30
-602.067900 -158.511531 971.807003 14 15 19
-612.919283 -87.338090 953.264236 134 106 89
-610.701036 -233.848763 985.939980 119 74 60
-611.684847 -81.919014 953.079891 24 15 12
-546.231508 171.589971 938.577175 5 12 15
-595.513725 -158.750892 979.069424 25 31 38
-603.566790 -145.675206 972.756481 81 83 84
-603.739214 -145.829272 972.675514 81 83 84
-601.367426 -142.613399 974.298286 29 28 37
243.010950 195.498347 1410.079956 107 63 34
-611.406755 -52.583599 951.081848 39 24 22
-598.385811 -162.468505 982.763004 27 21 26
-602.787685 -128.716147 973.720551 44 45 49
-611.197519 -86.618453 960.228443 146 111 91
-596.314526 -163.285124 987.229061 82 79 81
-610.627747 -87.095892 965.270805 24 13 15
-603.875637 -280.522943 1011.490250 90 52 40
-603.875637 -280.522943 1011.490250 90 52 40
-209.297562 -44.548786 1192.522717 116 72 55
-607.196474 -71.838522 966.309357 110 71 62
-610.813475 -225.735736 997.608089 125 75 55
-610.943937 -211.655974 995.221329 122 75 54
-600.799465 -139.082110 985.682869 31 26 28
-610.022974 -90.972364 970.129204 127 87 75
-611.601877 -78.114188 967.735767 165 122 101
-600.825405 -138.095331 988.919640 59 37 26
-600.842667 -114.113569 984.442234 64 46 39
-600.981569 -125.903368 987.668133 31 27 32
-513.161039 199.848354 968.606091 7 7 7
-640.834999 -217.213511 982.615757 156 115 92
-610.873985 -240.266252 1008.768463 118 72 55
-609.842300 -49.485201 969.936085 180 133 112
-550.549507 -21.238911 997.907257 178 134 110
-604.611111 -266.525269 1020.974445 47 33 39
-598.491096 -142.570949 997.811890 107 114 117
-600.221777 -132.506013 994.642830 51 31 30
-514.319277 63.121635 1002.443504 55 67 67
-515.546608 195.779920 974.923229 31 24 15
-610.418940 -48.540661 975.243855 23 12 14
-599.403191 -155.045104 1004.884911 44 38 43
-659.423780 -381.643176 1019.832039 48 19 15
-512.063265 55.429476 1009.621906 66 80 86
-600.377274 -120.123672 997.540569 149 117 104
-610.370398 -76.465815 982.474518 26 14 14
-610.229445 -86.917627 984.955978 19 14 11
95.993221 155.408597 1335.496712 151 115 97
-607.987356 -67.152423 986.128521 25 13 11
-599.405813 -125.337696 1004.214764 18 17 26
-609.578943 -76.183784 987.928200 145 108 86
-601.134491 -163.505077 1012.265396 90 76 82
-599.365234 -158.805633 1012.504959 112 78 89
-600.398684 -136.121356 1007.812977 83 90 93
-608.931971 -18.565485 978.415489 150 125 121
-608.842564 -27.573362 981.201458 175 140 120
-600.200939 -121.137857 1006.653786 67 75 82
-600.200939 -121.137857 1006.653786 67 75 82
-596.377707 -127.986348 1012.594318 36 37 41
-607.398176 -20.975386 985.696030 143 112 97
-598.551655 -124.734569 1016.368198 176 134 115
-597.252035 -134.824073 1020.068550 176 132 115
-589.434862 -92.063218 1015.209293 24 21 36
-597.126961 -152.832079 1024.390697 56 25 28
199.341142 141.514468 1409.762192 80 44 36
-596.116352 -150.399852 1027.768993 65 43 37
-680.914927 -24.033999 953.594303 86 66 55
-599.035740 -137.852645 1023.598671 74 48 54
-591.971445 -123.548162 1024.669170 43 35 36
-602.956104 -259.356523 1050.983238 52 48 59
-600.045729 -118.690681 1023.056221 60 39 37
-598.981047 -153.753507 1031.589222 43 25 42
-601.122189 -135.351908 1028.405476 80 84 85
-603.087044 -231.844401 1050.744247 53 49 61
-602.720547 -240.419912 1053.656864 51 47 58
-613.283014 13.232397 993.461990 57 37 36
-598.056650 -123.541892 1036.866951 114 78 94
-596.353960 -82.378429 1030.672264 82 82 82
-550.751495 15.756312 1034.170914 39 27 25
-611.150551 17.072761 1004.733849 48 33 30
-600.432587 -128.654540 1043.004990 90 68 56
-597.730637 -80.361605 1039.231014 92 96 97
-597.730637 -80.361605 1039.231014 92 96 97
-599.375582 -129.486203 1049.887180 48 26 31
-557.814503 18.081662 1039.913177 37 27 27
-561.641264 12.082464 1039.207840 26 23 38
-595.863533 -2.491952 1025.953197 113 89 97
-599.032879 -77.422220 1041.736221 30 23 28
-600.418854 -259.917116 1085.437775 78 46 40
-601.516914 -226.245856 1079.551983 55 47 54
-571.076298 32.068533 1037.753963 42 31 33
-597.543192 -67.414182 1050.775909 83 87 88
-592.918873 6.080294 1050.616932 143 109 96
-598.297358 -99.214792 1081.371212 102 60 48
-604.919434 -247.758174 1114.704895 122 87 73
210.546827 153.111601 1432.722187 80 44 36
-596.285009 108.398998 1041.890430 56 36 31
-597.773266 -84.827846 1087.978935 54 36 49
-596.111488 125.198126 1041.110516 57 37 32
-597.309208 30.641234 1063.040066 89 53 47
-596.104383 -136.462891 1104.033279 104 62 50
-595.088577 172.942650 1033.292389 55 37 30
-598.597002 -91.684234 1094.407463 141 108 93
-597.483587 -96.286696 1096.580791 77 54 62
-597.811413 -135.158181 1107.934761 148 115 96
-610.043859 -65.440971 1087.467766 54 26 25
-597.906876 -136.422527 1109.755611 112 70 57
-605.582476 -219.103956 1125.485802 173 129 112
-596.081972 -91.787034 1100.913525 150 111 96
-620.786858 -20.989411 1073.017693 58 30 30
-597.433758 -90.237224 1101.557541 153 118 108
-605.291700 -28.080061 1084.419918 41 23 22
-599.823332 100.099885 1058.786488 24 16 27
-600.182676 2.196172 1082.381630 54 33 31
-780.399227 -75.723845 1020.984936 38 19 16
-767.039299 -71.741891 1027.118111 40 19 11
-10.256016 99.326438 1342.816353 188 143 122
-597.833204 -98.018402 1113.121986 109 66 57
-596.123075 -93.434769 1113.446140 160 117 98
-603.103018 -40.543622 1098.993111 42 26 20
-602.931786 -61.303246 1105.798149 103 60 41
-596.019602 -110.514879 1121.687508 60 36 46
-603.269529 190.607846 1049.632454 33 23 16
-632.722902 -203.901148 1126.984596 104 60 43
-633.692026 -201.677680 1128.528214 152 113 85
-794.031143 93.556648 989.264297 35 18 22
-601.777649 180.727065 1057.562351 137 107 90
-597.532463 -132.705057 1133.059311 106 66 54
-601.134348 197.786903 1054.301167 134 100 77
-594.950485 49.307674 1092.070580 75 47 47
-159.659076 35.650364 1292.642212 174 134 115
-604.931450 -16.793741 1103.128338 166 120 103
-603.322506 14.028011 1096.965885 173 129 112
-604.563761 -60.770470 1113.927460 88 50 38
-603.789473 -50.058055 1111.845684 124 75 61
-598.436928 -131.432915 1134.255695 150 112 94
-598.436928 -131.432915 1134.255695 150 112 94
-594.682264 88.571352 1084.958267 143 100 83
-594.682264 88.571352 1084.958267 143 100 83
-601.102304 -51.148951 1115.018177 124 79 58
-578.482771 -124.469113 1142.976379 106 66 54
-595.930767 -92.526191 1131.118107 78 61 65
-603.583574 10.293181 1103.864765 57 33 27
-605.064201 -61.423713 1122.276497 163 120 103
-601.902485 -13.151880 1114.407635 160 123 101
-586.870050 -15.720434 1122.243881 40 19 11
-594.036007 79.640412 1098.341274 79 43 35
-601.176453 -10.675631 1116.563034 40 14 20
79.519266 210.632348 1388.190365 147 111 87
-604.861927 116.037691 1085.929298 25 19 14
-598.067999 -73.415053 1133.934689 29 17 13
-594.661427 -91.717625 1141.255951 70 42 35
-593.569994 86.040342 1100.179386 87 50 42
-594.584417 -144.258511 1155.144215 43 27 34
-600.507307 196.507871 1071.975231 62 20 15
-600.507307 196.507871 1071.975231 62 20 15
-600.410891 191.015422 1073.537827 48 17 20
-597.638750 7.428298 1118.271065 47 31 19
-595.465565 -81.941587 1140.536976 51 35 42
-594.740057 41.385281 1112.181950 136 97 82
-594.996119 -133.849406 1154.190826 108 67 58
-600.854158 179.188931 1077.462482 17 12 11
-599.484158 192.098606 1078.720093 45 11 11
60.647607 233.544087 1354.527378 79 33 25
-590.435553 114.233279 1101.417637 42 27 25
-509.867191 153.436017 1135.173893 35 18 22
-593.750954 27.578992 1124.953365 61 47 51
-598.050451 139.848971 1096.385384 151 111 92
-598.050451 139.848971 1096.385384 151 111 92
-595.597935 -236.230254 1189.808846 48 44 56
-595.648956 177.198064 1093.766022 47 31 19
-593.593645 184.465337 1093.277168 47 31 19
-595.151091 -221.880722 1191.550064 55 47 54
-594.379854 -216.910982 1192.001534 55 40 48
-592.602015 86.996776 1121.239948 86 60 46
-592.180347 137.221527 1115.503025 68 39 35
-592.008781 121.759748 1119.841576 72 42 41
-562.492990 190.336287 1122.279263 122 89 69
-593.141556 140.338981 1118.887043 131 98 82
-591.027403 203.612947 1105.577469 122 89 69
-592.341423 172.175908 1113.989449 127 94 75
-572.639990 161.290288 1128.089714 74 45 36
-533.611155 -175.557411 1222.756577 86 85 89
-590.674829 174.839532 1116.697121 74 45 36
-508.262014 178.556693 1154.188538 69 45 39
-590.715599 141.708267 1125.364113 135 104 79
-505.680466 148.411930 1163.618374 126 94 71
-508.876705 197.524118 1151.424408 74 45 36
-359.142327 181.381762 1227.180004 126 94 71
-202.462149 210.611057 1296.426582 126 94 71
-593.049431 -205.747962 1216.154575 36 34 46
-593.049431 -205.747962 1216.154575 36 34 46
-422.913790 155.555987 1206.848049 69 45 39
-479.346132 161.553252 1178.918552 69 45 39
-421.863651 172.997034 1205.149555 74 45 36
-480.416965 131.774497 1186.536789 126 94 71
-477.521324 180.007625 1177.471542 74 45 36
-453.790236 178.408229 1187.769413 69 45 39
-478.909302 150.598752 1184.553909 135 104 79
-453.549099 149.967635 1195.618057 126 94 71
-452.747440 196.401787 1185.904312 74 45 36
-365.683842 200.639391 1225.024796 69 45 39
-364.532185 200.823569 1225.586605 69 45 39
-366.093564 175.178921 1231.792736 126 94 71
-362.854147 191.617799 1230.956173 135 104 79
-245.741653 201.575613 1283.201122 126 94 71
-370.534635 186.344564 1233.349133 74 45 36
-371.065044 160.372245 1239.806175 135 104 79
-384.064555 154.764438 1234.111881 126 94 71
-380.696559 197.422040 1226.541710 74 45 36
-381.478167 171.548891 1232.976246 135 104 79
-339.523149 173.643422 1251.128960 126 94 71
-335.237575 213.741827 1244.407940 74 45 36
-254.602313 217.533636 1280.057907 69 45 39
-253.785944 217.670274 1280.442524 69 45 39
-337.320161 189.313328 1249.848366 135 104 79
-258.810329 195.544958 1284.031677 126 94 71
-160.033154 216.948342 1325.456047 126 94 71
221.311331 234.556007 1444.962406 41 22 14
-273.022604 192.216003 1283.239174 74 45 36
-308.510113 161.383176 1273.833847 126 94 71
-305.475402 199.708354 1267.104340 74 45 36
-293.961883 198.065794 1271.739864 69 45 39
-296.080089 174.825847 1277.036476 126 94 71
-243.749523 214.087415 1291.449070 69 45 39
-247.151995 192.541909 1295.786381 126 94 71
-242.854643 206.397462 1295.731926 135 104 79
-173.774588 211.607790 1325.334454 126 94 71
-72.765470 83.419901 1382.384682 49 24 34
-74.103075 107.255208 1378.038025 102 60 48
-190.602422 197.732127 1324.788380 74 45 36
-72.043979 112.183237 1379.935169 64 43 52
-232.560635 202.867174 1305.291176 74 45 36
-243.032742 177.926922 1306.192398 126 94 71
-240.152407 212.496853 1300.057220 74 45 36
-219.472122 191.824901 1314.053726 126 94 71
-70.947421 115.019083 1382.188320 54 36 49
91.408795 163.740289 1452.218342 41 23 22
-170.591283 207.920551 1332.715988 126 94 71
-106.259680 224.321365 1358.074856 126 94 71
-67.601752 113.309765 1386.753464 141 108 93
-65.263164 59.304178 1402.115917 173 129 112
-65.655142 94.368744 1393.896389 112 70 57
21.809079 185.409629 1412.492085 64 43 52
-62.182635 105.987680 1396.410656 61 37 39
69.713241 90.786695 1448.845100 131 91 72
-11.374364 156.689274 1411.858559 150 112 94
-59.582567 92.221338 1403.689480 94 80 82
-58.279920 93.685246 1404.650784 49 28 31
-36.549920 238.010120 1390.407753 126 94 71
257.364750 211.365557 1480.859947 129 96 81
257.364750 211.365557 1480.859947 129 96 81
242.395926 232.349229 1465.860081 52 28 16
233.239937 233.057570 1460.297585 136 86 63
138.471115 180.065334 1478.455639 45 16 19
-67.305523 222.536922 1376.491642 24 15 12
-54.091311 106.951976 1407.990551 99 57 45
-59.524012 193.050945 1385.379410 75 43 37
-57.349360 189.235568 1389.137077 99 58 49
-57.349360 189.235568 1389.137077 99 58 49
-50.949568 116.178715 1410.824776 156 116 97
-50.949568 116.178715 1410.824776 156 116 97
-69.150525 228.884268 1376.417828 44 17 21
-54.695773 187.278318 1391.418743 129 95 82
58.657438 76.510376 1462.628269 255 222 203
-48.086926 119.684637 1413.642311 70 42 35
-47.287193 102.364159 1419.211674 108 67 58
-51.413214 216.756558 1392.699337 55 25 20
234.906316 234.974051 1468.257141 138 88 66
88.422137 126.770484 1461.231518 52 48 59
1.319518 242.818046 1413.711166 126 94 71
-45.092165 237.661958 1394.101906 47 31 19
-42.771459 197.161829 1406.713963 86 60 46
-37.990507 209.359574 1408.757019 138 105 79
-38.204864 228.061032 1404.275608 70 42 41
-20.990528 216.454077 1416.400719 69 45 39
-5.649535 91.730767 1451.849270 86 85 89
-30.408782 209.014869 1415.150642 126 94 71
-29.889569 217.720771 1414.152718 135 104 79
-30.781859 231.201434 1410.286427 74 45 36
-30.356351 216.725278 1413.822365 126 94 71
-28.559750 225.446200 1413.272858 135 104 79
-27.004898 239.166689 1410.298729 74 45 36
-18.877462 225.610423 1416.795540 126 94 71
-15.271698 234.303236 1416.979790 135 104 79
1.982271 235.220933 1423.327351 126 94 71
1.825825 235.147572 1423.286343 126 94 71
92.605013 25.105837 -145.346761 22 12 5
116.579819 -169.601393 -12.368819 131 98 95
155.121696 -430.329418 169.967902 148 110 92
98.563963 -296.637368 -66.846955 164 120 107
95.398802 -366.541862 -61.787891 169 125 108
116.907299 -607.515955 -82.854384 120 73 46
55.249280 -250.237966 -227.698207 148 116 105
171.753013 69.106919 858.759308 65 40 30
102.827430 -615.021896 -33.448097 248 184 160
164.287496 60.433149 817.790794 169 129 111
261.115313 412.233591 1723.461342 72 14 25
47.857565 -257.544899 -140.686893 153 114 99
81.441236 -594.055271 -85.007662 57 15 22
42.032143 -248.905826 -142.288327 66 37 30
41.523588 -264.814544 -139.931822 78 46 35
35.005322 -257.454371 -139.970255 169 126 109
54.782164 -464.956236 -103.051901 44 33 43
29.096407 -232.982802 -144.161010 88 52 36
15.351827 -73.085403 -131.348300 55 22 13
28.435466 -264.160061 -138.511825 83 49 33
13.542333 -78.850991 -134.061432 142 102 83
12.690248 -70.058990 -130.996311 115 88 68
22.366276 -255.929208 -136.446643 160 120 102
38.728401 -425.346851 -113.081491 130 83 61
33.019710 -372.479463 -123.025703 179 135 122
5.554942 -60.714465 -138.347650 58 27 28
38.279274 -441.168690 -111.139500 125 82 61
16.897401 -231.649971 -141.385055 85 55 36
16.591324 -247.872162 -140.496659 61 35 28
50.305694 -484.625626 -42.461520 20 15 17
4.109920 -78.697109 -133.714473 139 102 88
18.944967 -283.330536 -130.414951 55 29 22
18.944967 -283.330536 -130.414951 55 29 22
2.666526 -73.315370 -132.635522 42 15 18
26.698276 -377.187109 -120.073271 133 84 62
31.661376 -434.525681 -112.124157 174 131 114
18.930291 -450.094223 -110.441625 157 119 101
7.650421 -607.556677 -180.613422 63 33 28
-28.482753 -244.186044 -134.004009 164 120 103
-14.859551 -510.121822 -74.704278 122 91 70
-14.859551 -510.121822 -74.704278 122 91 70
-16.719364 -498.066854 -73.757595 59 52 67
-43.664169 -291.520500 -123.517883 110 93 102
-33.102977 -442.230558 -99.124217 181 132 116
-26.070175 -517.542505 -85.041296 69 59 71
-33.868739 -501.062679 -84.089154 78 61 52
-63.609666 -359.915447 -113.330352 79 55 63
-74.853748 -254.663420 -137.748885 154 117 97
-79.336262 -221.116948 -138.015187 140 107 88
136.744523 90.266448 1080.035210 152 112 94
-80.193675 -270.324898 -132.061636 142 106 88
-80.193675 -270.324898 -132.061636 142 106 88
-60.018772 -487.797546 -91.099787 20 12 13
135.710478 95.463598 1088.855171 152 112 94
-91.389984 -191.239035 -142.857492 165 126 111
-77.744710 -421.598196 -105.401540 131 87 64
-77.744710 -421.598196 -105.401540 131 87 64
-74.202305 -460.812950 -97.120392 58 41 45
-74.202305 -460.812950 -97.120392 58 41 45
-79.161531 -431.507492 -108.883405 172 129 110
-88.750100 -374.403739 -114.581072 136 89 67
-93.048656 -312.673593 -118.500125 169 125 108
-81.876063 -460.773659 -102.889907 91 65 59
-85.033500 -641.266441 -157.098413 69 52 31
-89.995736 -422.694302 -108.732653 137 88 66
-110.454440 -197.227359 -142.103696 88 54 38
-105.481994 -252.672148 -132.081831 157 118 96
-105.481994 -252.672148 -132.081831 157 118 96
-90.180081 -438.396835 -105.649519 135 85 63
-90.720278 -451.041746 -102.555788 117 73 56
-86.646909 -759.672880 -151.470923 255 208 180
-87.624979 -757.635403 -153.207350 185 120 89
-88.127017 -764.222240 -153.830683 188 124 93
-96.460164 -666.556978 -165.572822 255 205 183
-111.348736 -244.396353 -135.612297 64 38 26
-119.654882 -235.795665 -160.936403 148 113 100
-97.142041 -454.387283 -101.860940 182 138 121
-105.385852 -690.458012 -164.714110 255 206 176
-103.553641 -437.678051 -104.894125 134 85 63
-108.225024 -659.539366 -165.731120 180 148 99
-103.230596 -450.469208 -101.636088 125 78 57
-108.433330 -664.010143 -163.689291 140 104 64
-108.347952 -682.626057 -162.932777 64 46 47
-108.347952 -682.626057 -162.932777 64 46 47
-99.219137 -535.673237 -93.735343 47 27 22
-108.834267 -694.813919 -162.399340 186 123 102
-108.834267 -694.813919 -162.399340 186 123 102
-105.195165 -734.498835 -149.611497 255 201 174
-107.280767 -734.061956 -156.278670 255 200 180
-112.183380 -676.620483 -164.636064 252 199 186
-106.390512 -758.000278 -154.179955 254 202 185
-106.839931 -762.782001 -150.911772 255 210 183
-109.391618 -736.567116 -156.223178 130 60 37
-109.391618 -736.567116 -156.223178 130 60 37
-111.211741 -739.095163 -155.070376 253 194 174
-112.813687 -737.088108 -158.941507 249 187 171
-111.926043 -763.717985 -154.569340 255 208 187
-112.605774 -459.126806 -98.460209 88 60 59
-121.855009 -672.187853 -173.635089 255 205 183
-126.355672 -356.888580 -107.571471 76 58 65
-119.485164 -459.126902 -93.541312 58 41 54
-112.559819 -557.447958 -61.021900 79 75 87
-127.127087 -759.503031 -153.377390 161 92 72
-128.924251 -762.882614 -153.768778 255 207 181
-143.465900 -289.023423 -119.030082 105 91 93
536.567593 482.748127 2681.956100 26 11 9
28.537655 90.038192 659.145498 55 22 13
532.234526 502.742815 2647.538567 51 41 31
23.381157 91.684496 659.651279 107 82 62
-161.264074 -581.144094 -132.302952 73 46 42
-158.776307 -437.020206 -90.944952 180 131 115
22.094630 90.439242 660.391140 42 15 18
-189.393830 -179.467511 -133.139336 55 41 52
-202.931046 -242.184687 -132.021570 57 31 24
-191.057086 -354.313254 -102.167034 76 54 56
-52.585751 -56.561327 436.939621 145 106 91
-276.827478 -346.592569 -371.231294 124 91 75
36.590567 61.486834 919.358826 137 90 68
-186.870003 -494.107628 -60.552633 31 19 19
121.253991 131.456947 1079.508877 61 32 28
-186.435747 -492.677498 -57.605821 31 19 19
-221.027064 -250.239539 -126.687276 159 119 101
-216.745138 -270.177770 -113.049245 83 49 43
-227.775192 -241.130972 -127.787733 70 39 30
116.148734 137.516725 1078.014469 169 129 111
-246.587038 -364.643264 -112.895954 142 105 91
-280.233192 -131.811428 -66.658109 62 42 47
-304.644084 -123.556101 97.606194 15 12 14
825.621796 1230.366611 3103.115273 67 40 36
-313.100743 -294.870234 138.434148 36 25 27
-314.440489 -338.446689 146.075344 24 19 21
-314.440489 -338.446689 146.075344 24 19 21
-38.777107 118.743193 881.012726 216 175 153
-35.549945 151.049709 891.328526 15 6 69
25.177300 190.862787 1219.144344 36 22 23
-357.975078 -107.159853 251.345873 35 23 23
-358.915591 -142.807853 256.424570 36 22 23
-538.413095 -701.938677 81.767684 81 53 53
-433.249283 102.498710 226.458359 98 77 80
-474.424553 -370.427608 192.595971 158 122 106
-474.424553 -370.427608 192.595971 158 122 106
-437.452936 109.847450 229.881191 19 14 13
-437.452936 109.847450 229.881191 19 14 13
-475.167704 -52.843237 208.818030 137 101 85
-471.940851 27.105829 239.047360 26 11 9
-493.115139 -541.793299 279.935408 30 20 13
-472.008896 11.217338 261.562109 95 73 62
-470.951700 -0.568152 267.183352 51 41 31
-470.951700 -0.568152 267.183352 51 41 31
-470.861626 -5.447947 268.282437 42 17 15
-470.861626 -5.447947 268.282437 42 17 15
-509.157705 -564.068270 268.448877 69 40 36
-495.449877 -372.393250 304.692268 154 118 102
-543.262720 -519.854307 304.183555 70 43 39
-563.554811 -489.809084 275.660849 30 18 14
-557.961082 -465.147018 302.104354 152 109 92
-546.676970 107.196641 275.023603 77 58 53
-555.396748 -375.234056 342.829823 70 63 70
-565.606594 -19.464262 297.868967 123 91 80
-563.243771 -375.408411 363.007116 79 63 70
-570.114994 12.795725 295.641828 146 104 85
-571.551847 -274.420643 338.605428 147 112 99
-566.295433 -118.235290 323.956013 64 50 54
-566.295433 -118.235290 323.956013 64 50 54
-571.430111 -78.569871 311.854172 151 115 99
-250.761271 -53.592068 876.536369 147 112 99
-349.797106 -140.132689 714.606428 140 105 95
-349.797106 -140.132689 714.606428 140 105 95
-570.641565 -370.212317 358.827281 55 39 46
-568.738127 -209.145474 337.870002 61 48 50
-575.462675 -364.948964 355.616832 75 41 28
-571.013165 -585.148811 396.759319 145 102 59
-573.617220 -113.440228 321.795511 65 38 28
-340.630078 -126.832521 737.405634 150 114 96
-570.317745 79.647571 299.126315 15 10 7
-697.054720 -233.168983 149.999022 145 109 93
37.989640 213.348031 1349.847984 130 98 92
-576.937199 -172.247028 329.127955 26 13 11
-576.898289 -342.332673 355.369663 154 118 100
-576.898289 -342.332673 355.369663 154 118 100
-576.035833 -105.950665 322.646737 132 100 87
-577.341557 -111.802721 322.231722 120 91 84
20.913902 94.088292 1265.568542 255 222 206
-536.170816 -280.073404 416.409731 126 87 78
-581.174469 -285.257196 349.408984 130 98 92
-581.485033 -349.072313 361.445832 149 114 100
-447.371578 -214.602518 574.194717 130 98 92
-585.138512 -358.687592 364.131784 107 82 86
-584.300661 -184.662521 340.100121 126 94 83
-584.561300 -95.484453 327.215648 50 23 19
-584.561300 -95.484453 327.215648 50 23 19
-588.076878 -356.212139 367.189384 148 113 100
-586.724043 -101.215708 331.054521 141 105 87
-588.421488 -182.541203 344.584966 134 103 88
-586.676455 -203.256965 351.537251 67 56 59
-581.514502 -570.481682 418.576670 196 152 105
-246.363926 46.563593 897.425079 72 41 32
-186.154938 36.476359 1000.225067 67 56 59
-591.236258 -162.684774 341.318417 145 109 93
-591.437578 -165.961802 342.669392 29 14 12
-500.480890 -269.016433 496.128178 154 118 100
-591.708755 -357.211328 373.757815 123 88 74
-236.355305 66.433066 914.020348 124 98 92
-107.629907 104.652226 1125.414562 29 14 12
-107.629907 104.652226 1125.414562 29 14 12
-595.050859 -348.034358 372.774601 79 45 32
-632.897377 -689.671040 372.842360 131 85 54
-634.473610 -730.719948 378.592539 111 67 36
-593.211365 114.648008 315.022469 41 29 29
-536.114883 30.922306 431.374216 63 42 44
-615.197802 -347.713828 390.873575 45 37 47
-615.197802 -347.713828 390.873575 45 37 47
-627.484894 -179.726303 375.375676 67 46 44
-627.484894 -179.726303 375.375676 67 46 44
-638.035440 -409.709549 404.200888 23 22 31
-661.808205 -578.478527 439.459753 158 116 71
-665.955687 -450.098133 420.276451 117 88 74
-636.928892 -28.070039 387.626982 67 43 37
-638.748074 -257.452989 432.284307 61 45 52
-638.748074 -257.452989 432.284307 61 45 52
-644.537067 26.435003 389.991879 125 88 74
-644.537067 26.435003 389.991879 125 88 74
-644.216490 -324.950814 454.334116 138 100 82
-646.165133 -352.576423 458.206367 42 22 21
-647.917604 -346.670961 454.507256 58 29 25
231.634498 314.022064 1650.126648 66 33 30
-645.236397 -150.265384 425.016403 52 27 23
-646.874571 -176.586294 427.637672 55 30 26
-646.358013 -161.146200 425.568914 72 40 35
-643.453789 23.489745 396.058321 59 34 30
-645.470333 -98.301935 415.870142 66 33 30
-649.522066 -351.653552 457.935619 100 76 64
-645.637465 -315.883040 458.017397 104 82 70
-645.643663 -172.107542 433.793259 122 91 76
-642.787361 28.843030 400.874949 134 98 82
161.477280 271.458507 1553.443909 94 75 62
-641.898823 52.837753 398.167396 102 76 64
-643.336153 21.164709 402.038288 94 75 62
-643.336153 21.164709 402.038288 94 75 62
-643.992519 -100.857759 423.684645 104 81 66
-640.485573 83.785146 395.378113 95 71 59
-640.485573 83.785146 395.378113 95 71 59
-640.485573 83.785146 395.378113 95 71 59
-706.391239 -361.710453 381.137800 121 88 73
-645.896244 -340.457582 466.208935 112 80 67
-633.333206 124.794304 397.818232 53 32 30
-508.300495 -214.029074 648.414373 112 80 67
-449.864531 -164.976466 726.384640 112 80 67
-645.507002 -350.136828 469.361067 48 27 25
-636.160994 -179.259861 451.780701 50 38 34
-642.388296 10.898361 410.406590 52 31 23
-642.115307 25.449738 408.147192 58 33 29
-720.328951 -527.655506 412.516594 255 211 188
200.838161 299.194145 1592.059994 68 39 34
-641.751862 -118.815207 452.526569 124 89 75
-614.910507 -98.596221 488.113976 124 89 75
62.741190 202.625179 1322.512627 62 41 44
-635.084772 -249.178863 491.293430 45 30 38
-630.514622 -78.003198 465.228224 49 37 43
450.640774 548.483801 1867.146492 255 214 195
-645.969772 -363.238859 504.597378 120 85 72
-633.533144 -16.617240 458.839607 69 42 38
-677.283192 -500.769520 497.786427 255 210 189
-630.257082 -353.576064 573.789597 105 75 64
-622.555208 0.829362 517.913723 120 85 75
-621.619987 64.509940 519.195652 95 72 57
-621.619987 64.509940 519.195652 95 72 57
-626.265526 -6.952605 528.749609 29 18 14
-624.236917 9.982210 528.303289 29 18 14
-625.611639 40.772468 521.425295 27 18 14
-625.611639 40.772468 521.425295 27 18 14
-624.698019 73.161858 516.400576 28 19 10
-631.710625 -323.505688 587.287283 105 80 64
-379.505372 138.721633 846.636105 122 89 73
-628.437519 -16.651466 538.672209 75 45 34
-540.711498 74.115348 642.866755 113 83 66
-690.952778 -478.919601 558.514977 254 211 190
-631.935024 48.797551 528.143930 115 84 69
-624.267864 126.931393 525.458097 135 99 83
-634.874630 -22.544889 553.037548 142 105 85
-628.389502 -327.101707 632.528257 51 46 55
-626.804304 63.808465 557.723093 77 48 44
-625.623846 -39.722034 580.947590 50 51 61
-630.217123 -333.420300 637.682772 119 84 71
-624.840403 114.847469 569.212580 71 45 39
-623.066139 -54.975039 617.508745 47 30 39
-629.897213 -325.390959 668.742800 29 22 29
-624.865675 -176.524532 645.077133 141 105 87
-620.548868 14.166334 613.549280 148 106 87
-628.036976 -319.755769 675.698280 78 56 51
-624.921703 -188.521934 658.425999 95 63 50
-631.911516 -113.047254 641.967535 102 75 55
-631.259012 -82.770842 637.873077 106 81 61
-630.408239 -75.120217 638.208437 146 109 87
-623.879528 -165.451908 667.241144 150 113 93
-648.806810 -93.610168 624.740982 67 42 32
-627.752399 126.074660 604.707003 148 114 98
-625.455618 72.533458 620.089054 98 72 56
-623.423529 56.076413 625.988531 102 77 61
-250.501394 174.056160 1017.535877 129 98 77
-245.001936 173.787785 1027.449989 117 88 73
-668.249989 -452.212906 689.969826 248 193 188
-628.057003 69.522363 622.989702 67 45 34
-667.329168 -460.076809 693.097687 255 214 195
-251.602507 176.274157 1018.103600 117 88 73
-620.085049 160.347807 614.156771 41 31 24
-668.322515 -454.079819 692.813444 61 9 16
-668.322515 -454.079819 692.813444 61 9 16
-625.547743 -318.064189 711.024952 44 31 39
-231.237102 44.783089 1072.786999 121 88 73
83.606726 217.981791 1451.570415 91 64 60
263.730597 336.950016 1659.285545 72 43 34
-628.503370 -120.032883 675.747776 72 43 34
-628.869820 113.317144 625.236082 79 37 32
-205.930591 -51.741880 1136.327553 255 210 189
-236.937618 180.325735 1041.396999 117 88 73
-395.944190 19.943300 928.918648 72 43 34
-621.112347 -210.479927 706.480551 62 38 38
-627.175426 121.957898 628.354502 161 108 87
-626.717091 120.901179 631.221867 60 19 16
-624.311781 67.576718 645.555401 143 103 85
-626.932287 126.088130 631.178045 111 57 50
-526.942873 92.357594 760.868597 64 40 34
-521.450138 97.496438 766.409349 65 38 34
-454.527521 117.286229 842.735767 64 40 34
-445.749664 122.933948 852.176285 65 38 34
-523.647022 108.207941 760.311508 143 103 85
-677.325821 -455.801392 709.392595 28 14 8
-620.143175 138.505423 645.617199 30 22 33
-620.143175 138.505423 645.617199 30 22 33
-620.680237 32.279730 673.538065 78 48 47
-618.990088 96.780533 662.303114 73 46 42
-617.870998 112.965512 660.997629 72 44 43
-683.563232 -451.648760 726.996565 18 13 10
-619.151831 -286.593652 758.296204 40 32 43
-618.809795 -15.699518 704.981136 97 97 97
-617.881155 -271.680903 796.479225 56 48 55
-616.994238 41.584283 731.586885 75 47 40
-498.314857 196.198952 827.786350 9 9 9
-611.637163 -196.807599 812.545586 38 24 28
-614.275646 93.219346 743.305826 68 42 36
-425.616741 201.225257 907.653522 84 76 87
-613.028097 46.835315 763.233566 72 50 39
-622.836685 -284.964299 837.241936 57 31 25
-622.861767 -277.813172 835.975266 62 33 28
-621.725321 -276.856613 837.026596 62 33 28
-621.725321 -276.856613 837.026596 62 33 28
-4.105110 166.930521 1404.204750 76 43 28
-617.345047 -129.004705 808.033848 26 19 32
-623.716116 -290.263486 843.094540 126 89 69
-524.636602 29.686403 865.871716 128 91 77
-710.838270 -323.084116 762.978458 101 55 44
-620.868969 -243.997526 840.917778 101 55 44
-621.425629 -275.811172 848.605919 100 60 41
-569.874144 -202.722454 885.702038 101 55 44
-618.144131 -122.431791 816.116428 29 20 16
-621.125412 -290.674067 853.204155 55 31 19
-520.959902 36.006841 872.628975 30 34 39
-623.395872 -101.518202 807.452106 56 31 27
-523.162508 40.040287 869.859123 15 15 21
-621.074057 -204.572272 834.041786 113 63 51
-621.184444 -204.714513 834.019661 113 63 51
-252.145839 3.838401 1136.391544 150 107 90
-624.891901 -115.437043 811.312103 39 22 19
-619.518375 -212.423253 839.752579 117 75 56
-617.934561 -205.027127 839.980412 114 71 50
-521.362448 41.668114 875.727558 28 33 36
-242.137814 86.192095 1131.529713 102 75 55
-658.487177 -74.505854 785.070133 107 84 69
-585.000420 -41.312850 841.413498 27 22 31
-573.481607 -50.708032 856.730747 50 25 23
-620.050097 -124.292088 826.429367 21 10 6
-620.496321 -273.347926 861.421680 100 62 44
-622.997618 -112.996280 821.041489 92 51 36
-620.923376 -106.947780 821.793461 95 56 41
-619.273424 -233.005404 855.620289 115 67 49
-619.458294 -120.555198 829.842281 138 105 86
-619.458294 -120.555198 829.842281 138 105 86
-621.640301 -286.658978 868.424797 129 93 69
-524.703026 4.852350 891.046429 112 85 71
-617.114592 -91.668332 827.549171 170 131 109
-617.114592 -91.668332 827.549171 170 131 109
-614.305210 -290.009427 877.997875 33 26 31
-621.238375 -123.258817 833.336163 15 10 11
-530.686903 35.886550 880.613995 8 12 13
-618.560982 -272.141814 872.190380 97 51 40
-619.443703 -263.480639 869.721794 102 59 44
-622.464085 -109.028816 831.460667 124 94 75
-522.844934 -7.527263 901.593304 104 76 65
-621.874523 -106.271911 833.399677 67 32 28
-621.874523 -106.271911 833.399677 67 32 28
-619.683933 -96.592188 833.626175 96 60 42
-619.839430 -85.705853 831.040001 38 23 21
-522.241020 0.734803 900.920010 118 87 72
-624.066067 -112.176394 833.876610 51 28 20
-623.775005 -111.853027 833.896637 52 26 20
-616.006899 -118.470597 844.167519 29 23 18
-576.105022 -31.627965 864.397430 25 24 33
-568.448400 -43.734378 880.098343 152 119 99
-519.853926 -5.808205 912.110233 102 79 64
-581.091833 -39.977702 867.282867 107 84 69
-138.272166 109.317935 1279.444599 102 59 44
-615.306282 -68.559122 841.699982 40 18 20
-610.160589 -177.874327 873.707104 94 53 44
-521.048927 -2.785641 915.548515 39 28 24
-520.329285 11.277322 914.454651 38 27 29
-517.813730 8.657888 920.145798 117 89 72
-536.090851 178.576326 862.786102 110 85 69
-709.435511 -51.614755 775.138807 69 50 47
-608.984280 -252.966857 908.897495 99 92 89
-635.818100 -50.236982 841.984653 99 76 61
-515.138102 8.053660 935.817528 68 46 41
-663.840866 -33.777514 820.319080 69 50 47
-456.403399 222.743058 937.235832 61 46 43
-456.403399 222.743058 937.235832 61 46 43
-606.409597 -89.949393 888.957787 76 84 84
-607.983589 -153.618109 904.340363 39 22 25
-607.706881 -299.975038 945.110893 110 77 62
-608.099413 -259.997678 937.357616 55 48 53
-608.787727 -251.339412 936.148167 47 39 49
-601.056290 -174.217582 926.684093 142 114 97
-564.563894 -17.804262 924.703407 90 72 55
-603.200388 -159.963691 925.946712 139 107 84
-601.097441 -164.499092 929.629040 152 121 98
-592.319965 -113.938832 925.413799 86 78 79
-568.668985 -18.814893 924.808025 94 68 61
-514.163828 13.671498 967.283630 62 45 36
-605.430984 -143.464649 929.933548 90 110 105
-572.233725 -10.480353 931.099415 117 88 74
-606.491375 -145.759451 937.916756 67 40 36
-604.894924 -124.095595 935.118771 72 84 86
-606.631660 -134.456158 937.529087 64 42 37
-604.104519 -142.341697 943.190670 19 17 17
-601.528215 -162.240374 950.285912 35 24 27
-603.274107 -160.072935 948.785019 59 68 72
-604.141426 -140.443623 944.525051 72 84 78
-600.214529 -169.560039 959.705639 77 58 67
-603.537989 -131.276751 948.136425 52 43 46
-601.946640 -156.502879 956.509209 24 24 30
79.225206 228.139448 1477.677727 138 106 93
-603.765392 -127.164292 950.610733 45 39 40
-458.501577 36.662766 1036.408329 117 88 74
-414.853907 53.051513 1067.018223 110 79 64
-33.940876 121.817589 1383.436394 27 15 13
-292.852545 94.494385 1161.713505 91 72 64
-221.012735 22.607711 1240.137100 111 70 55
-220.869255 21.292296 1240.620518 135 91 74
24.467200 164.922059 1430.111504 255 210 189
-220.472765 16.511391 1243.724155 100 62 44
36.511374 168.343699 1429.724979 81 53 53
49.988246 213.354254 1431.636810 69 40 33
-29.911017 123.646426 1397.867870 18 13 10
56.339020 190.432167 1451.605892 255 222 206
-273.727918 68.673706 1220.848083 72 76 70
81.316340 229.611921 1492.924309 138 106 93
-80.352509 122.757518 1385.088444 72 35 31
-164.195025 79.822183 1328.447437 72 35 31
61.137235 198.102891 1467.003250 68 46 41
46.134233 224.521375 1438.777256 83 46 42
45.447770 225.899839 1437.770557 83 46 42
-35.427034 165.134954 1409.458256 115 69 52
-50.138503 177.001715 1393.923855 21 10 6
13.582107 183.926821 1447.100258 159 118 103
66.505265 206.814194 1479.864788 159 127 116
156.905842 269.761229 1546.479130 85 90 88
317.395067 -138.316047 213.165212 125 108 119
311.661005 -167.051983 208.134675 167 133 120
357.034588 -544.269276 213.347411 76 64 60
305.804324 -148.860228 207.716799 35 23 17
309.215617 -221.757221 220.601916 161 129 110
308.876610 -237.312198 227.871823 45 31 42
118.832457 84.269881 1035.622692 154 127 113
-58.986640 285.829759 1562.639427 178 134 117
-58.986640 285.829759 1562.639427 178 134 117
306.385803 -373.434019 244.451571 165 127 122
-426.579952 1097.383881 3810.425949 57 34 26
264.035964 62.338072 184.019244 68 60 83
270.312381 -13.918453 199.452007 16 10 11
305.327892 -409.137344 255.280757 40 29 37
263.591623 33.967397 190.140688 76 68 91
257.835174 68.050110 184.031129 31 24 27
257.835174 68.050110 184.031129 31 24 27
-204.694414 810.458660 2609.310341 94 65 56
-155.704367 598.996830 2318.126678 127 94 75
299.456763 -408.821487 252.945280 80 58 60
2.384226 189.549983 1324.263763 84 49 35
257.597470 38.897380 187.145543 57 42 50
295.254612 -378.952289 245.312142 175 131 114
284.322095 -273.521590 237.783670 181 132 116
281.506991 -189.534283 186.113620 84 49 35
-207.641006 729.602194 2798.064423 67 38 31
102.749991 78.994411 1040.343666 48 26 14
-25.998369 244.165897 1431.975651 16 10 11
268.436670 -147.131920 212.135601 69 40 35
-26.994047 245.146775 1435.982323 16 10 11
258.149743 -56.851768 205.484319 55 44 70
-28.707883 246.713614 1442.819405 16 10 11
-28.696775 246.686387 1442.767143 16 10 11
-247.228241 787.302589 3114.866638 76 47 33
282.135201 -378.827190 247.300220 189 143 125
281.923342 -403.040266 250.886273 175 134 119
281.923342 -403.040266 250.886273 175 134 119
275.596142 -384.429288 248.714519 113 70 53
233.119178 52.280217 188.958848 113 71 58
194.506156 122.784281 368.209791 86 62 56
266.899848 -382.324266 247.676039 105 62 47
264.415359 -371.456170 245.509744 110 69 54
262.993574 -404.680252 259.262633 97 68 63
258.942461 -407.789946 260.008311 48 38 54
-54.953563 277.456093 1544.866562 108 72 62
275.490618 -520.050240 -908.635902 73 45 34
328.657174 -638.689423 -1306.171513 76 45 36
170.464480 -184.447014 128.478014 168 130 118
166.667044 -183.966720 152.921724 168 130 118
166.961622 -211.840796 128.573143 105 68 54
166.961622 -211.840796 128.573143 105 68 54
75.867325 136.308873 1098.150539 150 118 112
163.335466 -191.270268 141.030920 92 62 57
163.335466 -191.270268 141.030920 92 62 57
170.642018 -311.471057 181.971085 108 72 62
165.043283 -210.117388 121.896529 118 86 73
0.576912 446.493196 1921.142006 121 91 74
163.855422 -244.119906 141.933692 74 55 52
282.644033 -667.515755 -1097.704506 50 29 27
-64.639151 300.406194 1609.424591 111 72 70
167.645741 -390.714574 165.181875 169 126 109
339.663839 -1160.698891 -1321.396923 97 71 77
165.433657 -384.625912 155.874157 86 47 32
166.187418 -415.663576 184.356189 49 36 44
154.609573 -258.265781 114.975119 83 62 71
162.660933 -386.886215 143.896651 71 42 38
162.654948 -397.199750 145.098948 86 49 41
152.627432 -325.298810 122.224760 64 41 55
93.673086 21.766362 476.722860 69 48 57
133.994412 -417.101669 91.555035 181 135 118
-81.603092 346.974111 1788.325882 64 49 46
117.089450 -275.752902 -2.373786 89 66 71
8.067369 402.163172 2459.196091 122 89 74
53.296793 167.784941 1204.304504 157 122 112
-86.486477 370.699739 1860.160828 169 125 108
111.172140 -272.213030 -31.756729 64 49 46
105.387068 -175.810528 -74.537838 59 50 53
116.763008 -428.059959 3.035031 71 33 28
113.698101 -384.810066 -22.009531 142 99 82
115.406024 -448.531389 28.910345 97 71 77
116.362762 -410.539055 -87.723619 127 89 77
112.374640 -402.080822 -49.563614 127 89 77
110.453701 -401.694679 -30.884650 127 89 77
121.238780 -582.193804 -39.967522 247 184 156
96.564043 -185.827768 -93.921256 153 115 97
110.259807 -425.216818 -26.733902 79 45 39
110.259807 -425.216818 -26.733902 79 45 39
120.756364 -591.945744 -38.164389 244 180 155
119.384706 -587.122107 -40.437710 87 36 26
108.635712 -422.320938 -29.976740 147 116 101
109.113383 -440.324879 1.907455 62 37 35
117.567539 -595.427608 -39.774355 105 49 30
118.135500 -612.162876 -38.348100 246 182 157
117.285705 -600.827837 -39.343733 99 44 23
101.603186 -353.004503 -49.274257 74 53 62
53.220689 192.738307 809.400940 15 8 5
108.975554 -586.499357 -40.041977 44 24 19
47.304216 201.886535 808.218193 83 60 52
81.213409 -472.634983 -83.347166 99 69 64
3.943063 1086.040592 2962.064743 30 18 18
82.320458 -606.536150 -82.840049 64 26 22
61.372685 -243.038106 -176.885557 156 125 116
78.274804 -564.760303 -99.732441 71 39 34
65.971392 -364.154577 -122.014058 85 67 74
7.919854 1055.422783 2895.623207 254 216 198
54.396987 -201.887512 -152.924311 102 66 48
54.167777 -234.417295 -147.649205 86 54 41
55.060226 -278.350854 -139.937329 92 56 38
64.377010 -587.790012 -99.855435 245 177 154
42.871124 -202.562761 -154.389036 92 57 44
42.027089 -234.595799 -147.682130 95 58 44
41.451281 -285.263968 -143.100941 57 34 26
56.093359 -608.875942 -184.437871 69 37 32
29.685688 -201.479721 -152.122557 99 58 49
35.568833 100.332677 950.678730 64 36 35
23.100221 -225.830460 -148.051059 141 105 87
0.992994 127.245224 1176.714706 148 106 93
24.960929 -278.001714 -141.906202 78 46 35
25.809845 -410.417700 -117.177582 132 85 63
32.790855 161.877155 1032.062149 107 65 52
25.413415 -442.290545 -115.796924 130 84 60
6.020086 -183.557594 -138.065434 64 50 62
14.209989 -461.825657 -103.423846 98 66 55
8.210456 -464.039183 -101.599646 62 46 57
-48.778129 334.103680 1763.065910 134 95 81
-28.805453 -247.471285 -142.209017 165 122 105
8.655016 147.735786 837.494850 22 29 16
-60.892493 -183.797967 -141.755474 69 52 56
-55.619466 -600.673580 -119.226635 248 181 158
-70.180088 -287.142467 -126.809013 52 36 47
-73.754674 -230.003285 -142.231917 79 50 36
-74.569523 -279.988503 -134.773171 59 33 27
-77.597660 -282.038164 -130.184424 51 32 25
8.952297 120.922303 1056.069469 160 126 110
-74.204838 -460.823107 -97.318172 58 43 51
-78.651226 -452.487993 -105.982924 115 72 55
-81.617492 -459.164572 -99.612725 94 65 56
-84.517664 -447.540665 -106.468773 171 129 110
-92.544717 -237.310839 -140.147412 171 129 110
-92.544717 -237.310839 -140.147412 171 129 110
-92.884916 -254.825449 -137.166274 177 131 114
-98.882723 -229.754329 -140.300548 80 46 33
-99.855858 -276.953483 -131.765413 67 38 31
-90.803546 -556.531811 -49.752375 83 74 84
-15.839367 198.090112 875.756931 26 94 93
-105.865085 -270.345640 -132.978177 143 107 89
-105.865085 -270.345640 -132.978177 143 107 89
-110.644484 -190.406287 -147.347534 159 119 107
-108.798313 -258.572030 -136.799538 91 52 38
-108.574581 -281.718206 -130.533659 61 35 28
-105.109763 -675.463104 -162.832880 251 190 170
-96.625179 -581.583500 -59.591675 172 137 97
-111.886978 -260.666275 -133.625185 82 53 38
-108.418846 -682.995462 -163.773191 75 55 54
-108.857679 -673.227692 -165.601242 133 80 59
-108.857679 -673.227692 -165.601242 133 80 59
-112.507927 -690.201807 -163.648486 255 195 171
-113.737667 -373.015571 -112.477005 133 86 64
-113.731074 -373.129010 -112.288892 133 86 64
-107.134235 -567.935514 -68.485790 81 74 87
-121.929622 -180.155706 -132.277453 61 44 55
-54.228902 315.304804 1638.041878 76 41 27
-119.598019 -459.488440 -94.707340 69 48 56
96.498299 642.592001 2110.807037 161 127 74
-162.802482 -601.549911 -120.578086 255 196 172
28.026277 625.139093 2378.951836 70 48 53
-184.007668 -501.527262 -63.507253 168 133 93
-105.721927 -74.887538 498.938751 52 36 47
-108.014369 -39.390913 490.161180 79 50 36
-203.219414 -259.302497 -129.726517 61 36 26
-203.942299 -251.124978 -130.585754 145 107 89
-203.942299 -251.124978 -130.585754 145 107 89
-203.567529 -277.240562 -126.912773 50 31 23
-208.959651 -251.592827 -131.950843 149 112 90
-207.180476 -458.041668 -95.471281 78 56 58
-215.343857 -257.710457 -129.135084 77 48 33
-211.484337 -425.404644 -96.986681 162 122 104
-218.902683 -433.472586 -99.278218 132 85 63
-216.526103 -204.892898 -87.647545 78 44 31
-224.102116 -366.367483 -113.363814 171 128 111
-124.396622 -69.067985 495.220423 67 38 31
-39.242744 12.730625 1058.188820 249 185 161
-238.785625 -193.536282 -134.278011 96 62 46
-56.207627 175.001061 1283.094025 244 180 155
-240.016484 -240.958595 -129.966807 66 38 31
-241.666031 -221.709466 -132.485509 95 56 42
-242.872691 -270.631433 -126.691782 71 42 28
-250.446844 -558.929729 -131.999731 129 94 81
-250.114751 -452.788830 -97.426754 144 106 94
-250.114751 -452.788830 -97.426754 144 106 94
-259.363127 -556.696224 -128.401542 134 95 81
-247.055936 -523.888683 -62.626576 129 94 81
-88.120931 207.409668 829.079342 90 65 55
-88.144767 207.632947 829.344559 90 65 55
-284.305000 -244.945598 -50.432640 70 48 53
-34.377721 227.559376 1116.072559 86 62 56
-282.147908 -8.423992 75.384557 85 93 100
-284.919810 12.489374 85.670877 82 84 92
-287.742281 4.128367 81.363004 66 72 83
-305.791640 -40.180370 134.882689 15 11 22
-319.259477 104.514635 212.576222 127 82 71
-357.242584 -84.777671 247.140765 34 16 15
-357.156920 -78.333968 246.714401 26 13 15
-349.137974 -95.151097 290.818167 40 22 21
-359.045315 96.026593 219.681859 23 15 15
-364.273715 -27.308434 240.876698 120 94 78
-363.310957 92.945606 219.953704 130 94 76
-40.941796 234.032559 1258.632088 136 100 82
-431.293058 93.064648 203.172278 122 89 74
-427.384853 96.906161 222.677612 122 89 74
-437.735605 109.804296 229.132724 18 13 12
-497.952127 -500.849533 261.346340 68 40 29
-499.816942 -508.843470 263.286901 68 41 27
-580.992937 -685.169506 106.502962 254 205 179
-459.640741 93.119645 232.922578 118 84 68
-51.405978 213.685822 1259.857082 37 19 12
-52.438653 211.649346 1259.968948 107 65 52
-52.386582 214.387941 1259.498501 131 95 77
-471.274996 -0.644769 266.360116 46 36 26
-541.295576 -511.570263 328.169107 57 37 36
-559.405375 -218.432927 333.954382 60 45 53
-503.928757 -235.073543 506.063986 138 104 91
-563.457727 -78.972328 310.940838 67 46 54
-571.174717 -202.314210 331.624770 69 36 27
-565.587044 -9.934777 296.169925 118 86 73
-567.677927 -21.396121 300.869274 41 20 18
-566.746855 -25.906327 306.960940 38 25 23
-575.933313 -204.104686 336.718392 59 30 25
-578.375721 -253.413129 350.418472 108 93 90
-136.758018 46.942171 1206.880951 253 191 167
-581.598663 -248.579144 350.033259 76 57 66
-581.598663 -248.579144 350.033259 76 57 66
-530.644131 -261.427808 492.709160 43 26 35
-504.382038 -166.616046 532.937956 39 25 36
-593.082523 -580.599165 419.091606 133 90 51
-139.203525 220.528078 1367.680836 119 87 74
-589.943027 -357.873106 370.654774 79 43 33
-580.389452 -163.511539 338.898945 67 45 50
-588.312674 -283.900332 364.747381 63 45 46
-515.476322 -170.512760 526.520205 63 45 46
-445.094728 -41.111803 653.034353 115 83 64
-257.436681 107.773900 1105.647373 109 83 69
-588.289976 -3.622121 315.692091 34 21 13
-603.623581 -6.037933 336.135006 60 39 37
-649.326134 -580.316114 431.177664 110 71 39
-629.238129 -259.743857 388.313127 60 39 37
-664.554214 -578.835630 432.188702 129 82 50
966.022682 1063.637638 3405.027390 42 26 33
-320.508718 76.471967 1052.849674 137 106 91
-638.542271 -88.792032 403.031445 42 29 37
-637.751722 -216.799355 459.958982 88 55 52
-1044.828606 -427.891064 -166.734028 78 43 30
-97.922897 206.561303 1269.389248 158 127 118
-1057.062626 -477.134418 -155.294394 89 50 41
-1055.462742 -449.781370 -157.796824 90 55 45
-1046.177864 -107.651961 -206.421351 68 40 33
-1047.502613 -28.611553 -224.006605 158 105 84
-632.274675 110.658216 438.309669 71 46 42
-519.502592 112.405372 718.843222 78 49 44
-624.388409 72.963637 516.939640 26 15 11
