ply
        format ascii 1.0
        element vertex 25021
        property float x
        property float y
        property float z
        property uchar blue
        property uchar green
        property uchar red
        end_header
-121.800148 -37.465850 187.851322 66 45 37
-121.606731 -36.717033 188.054526 67 47 46
-97.200662 -8.086168 342.242503 47 35 47
-121.205187 -34.120724 187.531745 115 131 137
-122.505796 -54.306996 192.657554 181 138 123
-120.956862 -35.030270 188.321364 72 51 54
-119.185185 -5.350316 178.510737 158 121 107
-122.811162 -61.505187 193.845677 167 123 106
-120.724535 -34.358785 188.262689 61 69 76
-120.724535 -34.358785 188.262689 61 69 76
-120.576477 -33.990464 188.389301 116 135 140
-139.043868 -39.305949 58.612585 175 133 120
-119.082296 -8.729494 179.117191 144 111 95
-120.365322 -34.873736 188.882554 118 130 136
-123.678517 -71.854520 192.918169 110 67 52
-123.678517 -71.854520 192.918169 110 67 52
-121.017611 -41.594580 188.558495 55 58 66
-122.560513 -65.102035 194.623923 164 125 111
-120.413160 -38.129494 189.194858 105 108 116
-120.114255 -37.130874 188.165593 109 117 117
-120.766425 -45.024437 189.038527 136 101 115
-121.047437 -8.661291 158.990133 80 57 55
-119.414985 -38.154158 190.705919 35 40 43
-122.868288 -74.007189 192.875719 42 27 31
-117.670286 -6.570809 178.948104 74 53 51
-120.006478 -45.813805 190.995812 60 41 56
-119.187510 -38.426378 190.643561 113 124 128
-119.243181 -39.404964 190.910542 131 119 119
-119.828022 -42.591852 189.231384 120 127 130
-118.798065 -37.348723 189.493966 39 41 52
-118.814945 -40.266597 190.872419 99 70 65
-118.206024 -34.637666 190.737247 38 33 35
-118.344915 -36.482927 190.884519 128 97 88
-116.599953 -8.654505 180.210090 150 116 100
-118.615985 -42.840487 190.650034 49 34 32
-117.341316 -33.972597 191.042745 46 48 56
-117.473555 -35.769224 190.899289 125 106 103
-117.633688 -36.301288 189.589465 79 57 59
-116.525352 -27.013811 189.524996 22 25 29
-117.349517 -38.172522 190.311694 204 161 146
-117.349517 -38.172522 190.311694 204 161 146
-117.887604 -46.945852 192.589176 151 114 100
-121.664023 -11.399292 141.885614 37 30 35
-117.184913 -41.765469 191.765046 102 64 60
-117.184913 -41.765469 191.765046 102 64 60
-116.923261 -40.525147 192.301905 165 136 121
-116.570330 -36.458275 190.292716 200 158 139
-114.047086 -12.574638 190.006828 136 109 118
-115.184867 -25.974527 190.677035 93 99 106
-115.140855 -26.901820 190.687323 39 41 51
-116.248417 -40.385580 192.605841 58 34 36
-116.037929 -38.978916 192.934394 57 39 40
-115.948749 -35.234740 189.843130 203 165 147
-115.718400 -39.607722 193.516946 123 93 104
-115.307558 -29.068506 188.862956 45 36 46
-115.500247 -36.305290 192.264903 58 34 34
-116.129410 -44.154793 193.119311 114 87 103
-115.529573 -42.097887 194.156277 181 142 127
-115.259635 -37.659207 192.569315 38 37 47
-115.535498 -41.100705 192.981339 156 127 120
-114.296412 -38.414457 194.627190 60 34 40
-116.523945 -67.296332 198.151088 74 65 75
-115.856302 -61.052918 197.750163 84 70 76
-115.565097 -63.131601 198.636746 83 69 75
-92.974615 -2.235441 296.326423 148 118 101
-113.139486 -38.086405 196.182954 62 39 47
-112.237537 -28.933617 194.591999 34 25 28
-115.959871 -72.479498 199.955928 141 101 89
-111.419284 -25.344306 195.242298 47 33 34
-110.863996 -20.984235 195.558858 80 64 65
-111.013651 -23.061913 195.495474 58 45 47
-111.043072 -23.914124 194.440043 103 113 120
-110.662258 -25.353083 197.437954 73 58 56
-110.879207 -27.899796 196.509933 48 42 43
-109.613836 -11.916946 193.881774 159 121 109
-114.289176 -67.193335 200.797963 62 62 74
-113.420165 -60.704565 200.227714 61 56 71
-113.937044 -8.669022 162.547219 151 122 115
-113.937044 -8.669022 162.547219 151 122 115
-113.904619 -10.272779 163.100159 115 95 90
-110.329759 -30.665949 195.184159 74 54 66
-107.748544 -12.692706 196.479690 165 125 113
-107.748544 -12.692706 196.479690 165 125 113
-112.392640 -66.724116 201.476741 67 60 73
-107.215309 -11.346348 196.223295 179 141 123
-111.278427 -62.627256 202.209496 122 119 121
-111.398757 -72.021705 203.988743 127 93 80
-105.785871 -11.089259 198.331439 130 107 115
-111.174023 -6.036805 165.225410 59 45 51
-111.523449 -9.924591 165.521479 127 103 97
-110.619974 -66.588259 203.624153 68 65 81
-110.257065 -62.859195 203.337741 91 62 55
-110.671663 -67.926592 203.785777 105 63 50
-110.671663 -67.926592 203.785777 105 63 50
-105.687821 4.407097 187.919629 99 88 91
-137.472308 0.508393 13.925591 54 21 5
-110.085118 -65.512455 203.773522 92 63 58
-110.107267 -4.751279 165.538526 163 128 114
-105.546141 9.044080 182.577586 158 116 103
-137.151611 0.549347 14.320455 58 15 6
-105.064487 33.941975 168.967128 135 101 88
-106.855226 -42.042720 202.579474 130 86 73
-107.033026 -35.495481 194.632256 159 119 107
-104.806757 -30.185607 202.144194 99 77 79
-102.718222 -23.522994 206.403375 158 122 104
-101.865363 -10.655049 203.478098 192 146 129
-105.086958 -45.532167 205.341554 79 43 35
-103.823876 -32.116178 203.426194 113 78 74
-103.365433 -30.120745 203.491187 176 133 118
-103.365433 -30.120745 203.491187 176 133 118
-101.824200 -19.737528 205.522728 194 151 132
-101.824200 -19.737528 205.522728 194 151 132
-103.508890 -33.409175 203.763795 100 72 71
-103.135860 -32.899842 204.047990 172 138 125
-100.778711 -11.355449 203.993154 94 59 49
-104.586554 -59.094673 209.532690 182 136 119
-106.274092 -4.954433 171.211708 67 48 43
-100.769472 -18.137939 205.202079 69 40 35
-102.035105 -29.852250 204.088306 127 85 72
-100.613058 -13.778996 199.900842 166 133 118
-203.367162 -1.845436 -330.296779 103 69 69
-102.210963 -45.069164 209.030604 202 156 138
-99.891800 -19.418491 206.598210 189 143 126
-104.635811 -65.706146 207.318759 78 58 57
-101.312828 -31.393740 205.335236 144 97 83
-101.189995 -30.582023 205.368829 184 140 123
-105.248153 -6.771825 172.144973 150 117 102
-107.004356 39.419103 137.122524 83 64 57
-104.670584 -7.550091 173.456824 55 41 42
-104.468167 -3.479578 172.233236 112 76 70
-103.946221 -71.562195 209.952307 49 34 42
-103.607893 -69.614142 210.373259 142 105 91
-101.017261 -45.420796 209.812307 76 44 39
-101.009512 -46.949959 210.208821 77 45 40
-102.108538 -62.288076 212.127376 202 156 139
-98.450518 -22.911826 209.426951 151 118 99
-98.995084 -25.787985 207.845736 56 44 38
-98.995084 -25.787985 207.845736 56 44 38
-97.818762 -15.296505 207.389188 172 134 122
-99.891579 -34.895363 207.384539 151 117 104
-100.007343 -47.758257 211.325479 177 142 129
-99.038875 -31.264284 207.471943 134 91 76
-99.441814 -35.018092 207.377720 122 86 70
-101.017535 -61.654758 213.385463 146 100 82
-98.784310 -52.158278 220.685244 177 142 129
-207.324600 -4.301623 -336.232162 121 85 79
-98.042035 -30.501625 208.096862 120 87 84
-99.955177 -62.216270 214.409304 179 137 118
-97.572184 -29.830047 208.253789 114 79 83
-93.521810 15.103714 203.498006 163 128 108
-100.871086 2.548642 173.215115 40 45 54
-90.207219 41.179135 202.291083 151 120 99
-96.294737 -30.540842 209.431100 103 61 49
-97.998822 -64.307517 216.327667 149 112 98
-90.202677 33.755958 202.899313 154 119 99
-89.935613 22.421217 205.988097 105 67 63
-89.904308 15.130886 207.712150 103 71 66
-90.751624 4.554760 208.197069 99 84 92
-94.488502 5.322803 190.010047 173 127 110
-89.175248 19.361065 205.755782 161 125 109
-89.569712 4.500868 209.620357 105 90 94
-88.667172 15.247506 207.818079 107 70 62
-86.576974 26.540965 208.238316 103 68 64
-86.688966 19.221459 209.435797 109 73 67
-94.228846 39.753070 166.159320 20 16 15
-85.351145 33.950490 207.344079 101 68 65
-86.506891 16.527192 209.463596 112 73 64
-93.075991 -65.986854 218.600798 144 105 91
-85.375947 26.666787 208.510709 108 72 62
-92.193139 -63.617873 218.959117 78 67 75
-85.904646 47.151998 194.987130 80 72 83
-85.909295 16.225643 209.231830 160 126 110
-85.563767 19.322257 209.024024 105 69 61
-83.264464 37.959814 208.902407 93 64 59
-92.964005 39.440358 164.907300 105 93 113
-82.125789 37.952787 208.715034 99 65 59
-158.236134 -16.123526 -99.707484 121 104 71
-91.578388 41.053540 165.877843 22 17 18
-83.497643 3.774788 214.197302 47 41 58
-83.497643 3.774788 214.197302 47 41 58
-83.481020 -85.390997 250.237870 106 65 50
-83.986306 -58.202559 225.243998 59 52 67
-83.545810 -59.592611 226.042652 60 47 61
-75.137830 40.197098 214.959979 180 135 124
-76.614606 16.709553 217.633271 85 61 69
-73.895651 39.466366 218.324900 65 42 34
-75.039524 26.051295 219.056845 163 120 105
-75.039524 26.051295 219.056845 163 120 105
-76.076001 18.035278 218.077350 66 47 56
-86.267722 43.654522 163.879776 18 14 13
-159.728551 -13.751097 -116.789913 20 8 6
-72.761792 30.343980 220.767093 177 137 118
-79.067463 -50.119770 228.149915 157 117 105
-70.312333 40.638268 221.681499 164 127 105
-75.903314 -23.980074 225.401258 65 44 53
-73.481947 -10.266459 229.631495 163 127 109
-72.707021 14.472997 221.572089 118 70 58
-72.707021 14.472997 221.572089 118 70 58
-72.757465 -1.633884 227.289677 177 132 118
-73.885846 -14.727066 228.138089 82 47 34
-70.570415 26.707405 223.022318 166 123 106
-70.476454 23.045489 224.478507 156 124 105
-76.608467 -92.720217 246.804976 255 247 243
-77.153647 -91.874844 243.586636 255 247 243
-70.757312 -2.734870 229.377437 38 24 18
-70.757312 -2.734870 229.377437 38 24 18
-83.564895 45.013818 163.448298 22 18 13
-72.217077 -7.873169 224.065042 34 21 13
-71.565729 -5.795768 226.897025 42 25 16
-69.785142 -1.571759 230.677128 76 39 31
-70.715296 -13.337836 231.105065 28 16 14
-72.597224 -25.940120 228.874946 125 81 68
-73.865157 -55.900639 235.599589 83 49 36
-69.150931 14.702582 225.104642 120 77 62
-69.150931 14.702582 225.104642 120 77 62
-115.677464 -28.814441 71.591413 202 156 138
-72.516137 -32.352319 230.709505 122 76 68
-69.420242 -8.332226 233.591461 49 30 22
-68.094438 19.486761 225.822687 47 33 44
-72.939610 -21.716942 224.241877 65 39 33
-68.929994 -4.427621 231.911469 163 128 108
-66.329265 42.951235 222.476435 57 39 56
-68.583357 3.922707 227.108550 125 86 72
-70.441198 -40.395716 236.051440 171 132 117
-71.549106 -55.529141 237.111902 82 49 34
-68.672174 -18.998918 233.430815 165 129 111
-70.773327 -37.952420 232.706928 83 52 51
-70.773327 -37.952420 232.706928 83 52 51
-64.874864 40.517539 223.100734 99 63 55
-63.972378 45.076939 223.988438 150 116 100
-64.911157 36.821035 223.699260 100 65 55
-69.331294 -28.628430 232.516623 123 87 81
-69.540542 51.878965 201.110768 162 133 112
-68.197399 -22.773209 233.585811 50 33 44
-64.969635 25.962195 225.652575 107 71 61
-68.662298 51.709658 202.826667 69 47 52
-68.083322 -25.619322 232.848763 113 80 71
-67.594635 52.164662 202.787447 61 39 41
-67.567259 51.935053 202.954578 72 43 36
-68.662208 -57.812697 239.765286 149 113 97
-69.000244 -66.366011 238.781834 52 33 36
-66.744536 51.543248 202.217841 73 45 44
-57.269645 46.162418 230.103374 144 110 94
-52.220833 -86.040962 290.095067 84 55 50
-56.117874 38.722956 231.028771 151 118 102
-61.809343 -59.961253 244.014478 81 67 71
-55.160213 7.892319 239.409661 87 73 74
-53.246129 32.153270 236.113691 142 106 88
-50.658262 -89.748698 284.652615 255 242 236
-52.065307 51.371956 232.201791 24 15 11
-52.037632 46.079743 233.138108 46 27 19
-52.037632 46.079743 233.138108 46 27 19
-52.114803 42.095137 233.743644 45 28 25
-52.041852 37.034240 234.952188 42 26 20
-52.108014 31.031495 235.969138 44 26 19
-52.133775 27.678284 236.634231 41 24 21
-52.063221 32.257205 235.138702 117 90 64
-52.226412 20.298401 237.601185 40 27 25
-51.133245 42.887193 232.959628 137 104 89
-50.949663 32.182971 236.304212 141 108 92
-51.012099 30.634895 235.707092 124 92 86
-48.618144 -98.414367 283.757782 254 242 240
-54.394275 -53.984654 250.025082 149 112 98
-139.102125 -17.431065 -30.247015 175 135 117
-48.622853 13.915142 240.155482 163 120 105
-43.938372 -78.240985 281.880045 121 78 61
-51.279736 52.877331 215.602946 99 67 62
-50.950384 54.465580 215.013170 151 120 105
-50.187343 -61.606497 254.572129 131 100 85
-42.271981 -77.556807 278.854561 146 113 94
-49.315536 54.834193 214.973998 154 127 106
-40.278152 44.289425 244.902897 98 61 57
-40.834856 -80.278498 281.463170 111 86 76
-35.956657 45.146480 250.129533 65 39 32
-36.840564 -81.879592 284.445357 255 235 227
-37.093115 -82.607710 282.990551 79 28 35
-34.800223 32.007745 253.260803 162 125 105
-34.800223 32.007745 253.260803 162 125 105
-36.762956 -84.096807 283.088136 47 28 21
-42.335382 56.440246 223.557663 141 120 105
-35.874894 2.875560 258.455563 109 65 48
-36.022934 -82.765400 282.917523 255 223 214
-33.606678 31.277844 254.335928 80 50 39
-32.450917 43.014133 253.308916 146 116 97
-34.962970 20.049094 253.021240 121 76 63
-33.371878 37.691998 251.676798 149 118 97
-36.952850 -21.532458 259.577966 113 84 77
-32.571167 34.434444 254.649806 128 99 90
-101.645947 5.529400 67.453915 166 123 106
-35.083145 -13.986200 261.787820 176 135 120
-33.945864 20.758113 253.996706 169 126 109
-36.852720 -27.219945 259.935904 156 115 100
-36.583447 -26.727393 259.385920 119 77 65
-34.062493 -14.634468 262.607551 78 41 33
-33.131751 -9.976777 262.369347 163 123 105
-33.131751 -9.976777 262.369347 163 123 105
-34.776074 -25.372082 262.333727 103 69 69
-34.776074 -25.372082 262.333727 103 69 69
-34.776074 -25.372082 262.333727 103 69 69
-34.872124 -49.583054 269.289207 176 131 117
-30.577350 28.864235 257.370591 163 130 115
-100.767314 3.886256 68.497533 160 126 110
-22.724377 -84.261769 312.442923 93 53 48
-34.090304 -21.206680 261.823225 178 138 120
-33.982202 -35.954177 266.418004 80 45 32
-31.796849 -5.202186 263.271642 69 36 33
-31.840643 -8.480497 263.860559 63 33 28
-39.506724 56.045854 222.945881 149 115 102
-39.317927 54.812521 223.700929 154 118 102
-39.317927 54.812521 223.700929 154 118 102
-30.114126 25.212264 257.538390 49 34 42
-30.114126 25.212264 257.538390 49 34 42
-30.888817 0.655563 262.565255 179 143 127
-32.995492 -36.664850 267.411208 137 105 92
-33.653873 -55.524051 271.061707 67 35 30
-30.909613 -13.553132 265.654492 161 127 111
-31.939140 -38.956213 268.984699 77 41 33
-28.823066 -41.343862 279.077244 77 41 33
-30.459109 -17.274460 265.753174 52 35 46
-30.459109 -17.274460 265.753174 52 35 46
-31.946826 -49.844363 271.041584 78 42 34
-31.964749 -53.341806 271.607542 71 39 28
-31.815204 -55.204809 272.421885 61 32 27
-32.475623 -55.235612 269.896412 61 35 28
-28.690571 6.074957 261.945200 77 58 67
-28.690571 6.074957 261.945200 77 58 67
-23.114558 -92.293459 304.874635 255 237 230
-21.214879 -85.802650 307.611060 255 233 222
-36.675164 56.377137 222.488356 144 120 102
-24.018845 -79.103631 295.645475 126 94 75
-28.770301 -32.929811 268.938065 92 68 78
-23.747873 -78.707272 294.172931 67 36 15
-26.299092 -98.235953 292.215419 50 29 27
-23.368923 -75.935614 288.802552 111 70 48
-24.303968 -73.865008 285.202050 132 103 76
-24.478503 -72.738582 283.552289 46 24 19
-23.034446 -74.741554 286.821866 96 56 37
-23.084936 -91.299611 284.713769 172 127 113
-21.937324 -107.590425 292.276716 161 112 72
-22.065419 -107.478344 291.842890 161 112 72
-20.047192 6.863017 265.047002 93 68 66
-20.664413 -106.727815 292.414999 143 92 59
-18.603344 -111.898375 291.308880 209 163 116
-17.538776 -105.145562 287.562680 112 72 44
-52.370435 -1.912255 156.861413 143 118 116
-57.165498 -15.521556 147.606575 143 122 121
-11.899830 -28.632984 269.122553 135 112 116
-9.327520 30.118233 259.882569 109 83 67
-11.409888 -26.467711 269.132924 143 122 121
-11.734027 -45.417210 272.743464 146 125 124
-11.951043 -47.131449 272.559357 145 121 121
-10.056283 7.748213 262.750697 60 33 29
-12.715665 -107.251406 285.162258 119 77 48
-10.149922 -9.634493 265.933728 58 31 27
-11.945394 -60.894948 273.044086 113 79 79
-8.527165 35.069662 256.629872 33 18 15
-8.534929 29.334655 257.927537 107 81 64
-9.276798 -11.057114 265.981150 157 126 105
-45.267999 -47.607699 177.405310 157 117 99
0.451277 63.358182 269.390154 79 19 13
-9.473141 -26.903728 268.673134 162 132 113
-10.552843 -66.625637 276.132870 112 67 53
-10.940214 -64.318842 274.632764 116 73 58
-50.477129 -30.926099 164.031863 175 138 118
19.835337 -80.787098 349.014688 157 117 99
-9.425900 -43.184528 271.683502 188 145 130
-44.514626 -47.036478 177.549064 169 126 109
-6.001081 60.557413 253.482533 183 123 101
-7.487956 27.489808 258.286047 136 102 89
-8.387307 -12.434584 266.228342 44 24 19
-9.545182 -49.653983 272.865820 164 125 110
-9.545182 -49.653983 272.865820 164 125 110
-8.657851 -31.369880 269.410253 137 100 86
-9.645155 -69.961011 276.720858 175 137 119
-5.719543 59.638739 253.208733 79 19 13
26.855332 -86.083627 364.989018 162 122 104
-9.972513 -72.184908 276.370549 111 81 80
-6.525060 29.012966 258.469748 99 73 73
-6.525060 29.012966 258.469748 99 73 73
-8.850596 -66.109091 275.843143 165 120 106
-8.868708 -64.922482 275.365806 110 65 51
-8.893685 -68.157697 276.024961 158 117 102
-8.893685 -68.157697 276.024961 158 117 102
-7.732747 -45.995679 272.326303 171 132 117
-7.830700 -48.011714 272.460794 171 130 115
-1.267431 -106.773317 302.248812 48 34 40
-1.267431 -106.773317 302.248812 48 34 40
-10.063158 -109.462476 282.458854 137 93 56
-3.287817 -125.009811 301.379585 255 240 237
-5.640919 7.327187 262.516856 137 108 103
-5.558630 9.506586 262.068200 141 112 103
-4.721390 28.242069 258.481026 109 81 64
-11.455572 -0.859318 249.582124 141 112 103
-5.477494 43.327346 252.678132 113 92 91
-5.077147 12.819104 260.694528 39 19 18
-5.847115 -32.351610 269.862723 144 115 110
-4.870658 6.080798 262.507939 59 30 25
-5.933160 -30.261588 269.035649 145 119 112
13.495973 -41.874152 320.887232 143 118 116
-53.498554 -17.432265 146.295059 51 25 19
-4.030295 33.325225 256.934094 99 75 63
-4.030295 33.325225 256.934094 99 75 63
14.909708 -43.236884 324.272442 145 119 112
-4.053627 26.384830 258.282375 94 70 64
34.945345 -74.897814 381.463552 154 124 119
-5.065821 -46.850932 272.436452 154 119 105
-3.412785 29.785416 257.022572 114 85 70
-5.134759 -51.971525 273.174572 89 50 36
-3.191114 30.891156 257.228518 47 27 22
-4.193554 -12.722632 265.628767 155 122 103
-13.341928 -66.016775 255.495930 157 117 99
-4.227829 -27.527171 268.476748 147 115 104
-5.317254 -70.216566 276.452446 108 61 47
-5.412851 -72.265208 276.638198 101 58 43
-4.207553 -28.589860 268.653631 163 128 108
-3.121684 12.241902 261.102629 45 25 20
-103.766704 -24.526837 22.005084 169 126 109
-4.198280 -47.113699 272.281098 181 141 123
-4.198280 -47.113699 272.281098 181 141 123
-4.473893 -70.382196 276.247954 169 126 109
-4.529699 -72.498673 276.512194 162 122 104
-3.278160 -29.897153 268.925977 46 25 17
-2.339811 6.365810 262.097073 157 119 101
-4.524020 -66.827911 274.944687 163 120 101
-3.846043 -53.642184 272.707319 116 85 82
-2.459276 -10.959431 265.263247 162 126 110
-3.673029 -66.460991 275.183296 103 62 47
-1.027998 59.511292 250.188756 95 84 87
-2.797040 -69.865245 275.946426 185 143 130
-2.939191 -71.851361 275.947356 177 138 123
-0.624337 -93.397844 281.313181 177 133 116
-0.445533 -113.467276 283.503580 200 150 104
2.593037 -112.597156 284.838700 192 143 97
6.352179 -9.867069 268.586421 97 68 63
6.505346 -29.525009 272.662234 95 64 61
6.732920 -47.521499 276.247311 90 68 70
8.674857 -51.076907 278.472829 69 51 52
7.660662 -112.144053 289.012074 191 147 100
14.577389 -95.416719 296.724629 50 26 28
11.730586 -105.518210 292.215872 255 238 230
40.480381 -89.244241 344.731474 136 94 82
14.847918 47.047731 257.661653 138 109 100
14.791721 45.333260 257.829213 136 106 95
14.806953 40.365633 258.856058 143 111 100
14.783011 41.953152 258.414316 140 110 99
14.762874 36.970437 259.462762 148 116 105
14.569223 38.574955 258.480430 127 93 80
15.339255 44.111830 257.162833 38 21 18
15.640198 47.110221 256.417418 38 23 20
15.553810 39.751920 257.693052 43 28 19
14.793488 4.630369 263.449001 77 64 80
15.741007 48.534676 255.340409 136 104 85
20.090157 -76.063538 291.572046 155 121 97
14.118944 -34.819970 270.032907 79 65 77
15.414189 31.665388 256.657910 41 29 23
16.490451 -41.807437 273.473930 99 64 51
16.718018 48.316428 254.111505 135 102 86
15.308397 1.074927 260.760617 88 62 50
15.308397 1.074927 260.760617 88 62 50
26.614419 -82.572031 299.513221 164 128 118
11.749934 -3.250792 251.162195 154 114 95
17.093997 -4.594320 262.842941 154 114 95
16.679156 -8.616703 262.504816 165 122 105
17.994913 -9.709230 264.191508 96 62 49
19.232740 -74.232924 279.957342 137 92 79
9.031966 -39.899114 252.595043 102 63 49
17.993765 0.878432 260.426164 96 70 53
17.993765 0.878432 260.426164 96 70 53
19.123270 -6.883623 264.026618 99 70 55
19.553244 -41.755047 272.267437 107 67 49
17.966178 -44.579571 269.313407 75 46 37
18.194866 -48.272341 270.555902 65 39 32
22.795790 -74.258327 283.844090 146 105 96
-24.680325 30.406454 167.504442 138 109 100
19.726102 32.641384 254.205561 137 105 94
35.667557 -93.471766 311.546659 255 229 215
-178.284991 -12.570456 -124.593115 124 103 106
20.647311 35.280639 252.672935 34 23 15
20.577817 -47.160631 269.445300 155 118 110
20.457554 -5.387404 260.064650 173 138 124
-158.271646 -14.572021 -108.768940 175 140 126
19.857293 -37.573007 264.861512 168 131 117
-23.412122 28.665829 165.790105 87 65 59
-103.599477 -17.859456 4.545482 84 48 32
21.339884 -48.713881 267.644382 84 48 32
21.063319 -45.248112 266.330957 72 42 37
-23.438838 31.307024 164.666915 135 102 86
21.803226 36.777270 250.572777 109 82 68
21.327731 -44.260901 264.814973 87 48 34
22.252207 -47.339123 265.938973 182 136 119
-20.302606 -34.080303 182.510972 161 125 107
21.490282 36.114761 246.852946 106 77 63
-20.034264 -33.637652 181.797576 97 61 51
21.662278 -50.781530 263.906884 97 70 73
22.437966 27.951482 248.935795 46 36 49
24.208346 -9.868616 259.540176 161 118 101
23.119952 -49.348652 264.841390 89 56 36
20.910035 31.090161 241.571116 47 27 22
22.505553 -52.538401 261.413360 74 61 75
22.505553 -52.538401 261.413360 74 61 75
-66.567934 10.163815 73.303115 136 106 95
54.209274 -104.008329 310.972786 100 52 48
-60.586661 25.511265 74.352050 110 81 74
-60.761189 26.496512 72.262776 108 76 71
43.136674 -79.254365 263.667750 126 84 72
41.458216 -86.855906 260.519743 44 19 17
41.458216 -86.855906 260.519743 44 19 17
36.578915 13.443060 234.172988 113 64 54
46.822050 -86.026758 267.540193 143 102 93
-60.130584 23.184833 70.370632 47 123 122
37.616000 -39.349833 242.454743 131 93 81
37.368828 -39.354226 241.972303 131 93 81
37.368828 -39.354226 241.972303 131 93 81
46.646765 -80.838096 259.812236 159 121 97
39.634261 -3.404320 233.760524 74 47 56
40.032044 -5.368143 234.602761 84 53 62
39.552379 15.908679 229.856062 125 79 71
40.620992 -15.019506 236.556292 155 120 110
40.613839 -13.985206 235.362744 152 110 97
47.926778 -83.081770 258.775902 144 100 77
41.204202 -14.999695 235.969734 95 62 53
41.204202 -14.999695 235.969734 95 62 53
40.968600 -3.592957 233.548760 98 59 50
40.968600 -3.592957 233.548760 98 59 50
40.552467 6.286289 230.252004 114 72 65
40.552467 6.286289 230.252004 114 72 65
41.590288 11.025883 229.537177 172 123 107
41.413558 -14.162543 232.734203 164 120 103
41.413558 -14.162543 232.734203 164 120 103
42.049637 11.390302 227.552176 110 63 55
43.984944 -14.362267 233.465242 160 121 106
51.577228 -86.746335 255.661941 101 83 72
43.563315 -5.984188 228.731966 113 98 96
43.701392 -4.889329 228.472018 117 101 102
44.831064 -12.825806 230.620790 61 40 48
44.517097 -8.454434 229.347730 63 44 53
45.689148 -3.435780 229.075241 38 24 35
43.663231 -6.099965 223.260093 85 60 50
83.132368 -118.264925 301.648092 118 81 77
46.507347 8.086872 222.843885 145 106 84
46.529573 -23.166104 226.600981 162 119 102
46.843734 -39.083380 229.383183 137 90 76
47.838259 10.021247 220.563126 155 115 96
47.795480 -58.030933 231.574178 68 54 66
47.777161 -37.245321 228.129983 124 75 67
85.393232 -120.305431 297.737813 255 234 223
48.078319 9.210958 219.200110 63 32 29
47.994068 15.526181 217.804193 79 43 35
48.950937 -19.128805 224.231791 94 78 89
-58.628601 8.731171 59.799749 15 11 6
47.857401 9.561251 217.586040 97 72 62
47.837040 11.168424 217.254996 92 69 61
82.914776 -114.032412 288.929558 187 138 116
82.914776 -114.032412 288.929558 187 138 116
48.508751 2.075309 218.541360 70 38 32
49.935478 -22.277279 223.703170 166 127 105
49.756530 -13.478750 221.546483 152 116 98
-58.367652 8.387803 58.788079 177 137 118
49.984962 -6.059035 220.233774 155 117 99
50.640792 -32.838264 224.345660 110 61 51
51.176977 -25.423136 223.887110 101 58 49
49.620438 11.380842 214.948750 54 25 20
89.522219 -121.169412 294.056559 255 230 220
50.808048 -15.384986 220.661998 161 119 100
51.394141 -39.941427 225.226402 116 65 55
50.612235 9.072816 216.065884 58 31 27
50.612235 9.072816 216.065884 58 31 27
51.143724 16.224718 215.591884 108 81 67
51.496321 -17.901957 220.023775 115 72 63
51.835459 -17.437677 220.303464 101 53 47
52.092880 -16.481005 220.063448 102 59 50
52.041507 -3.165350 217.555118 76 44 39
54.433507 -55.141419 228.815055 190 140 122
52.795321 -29.358372 222.188902 144 95 81
51.915872 -20.327432 219.214344 173 133 114
52.256137 6.858516 215.301061 121 88 72
52.748185 -21.070637 220.079970 86 41 38
52.057147 17.062412 213.090539 74 43 34
53.341150 -41.944686 222.987676 117 64 54
52.981102 13.857870 213.577795 126 93 74
53.723460 -19.850284 219.446707 164 118 100
53.180784 10.387255 213.902187 65 33 28
53.185344 7.479952 214.279342 121 91 74
54.172146 -4.631422 215.366197 165 125 106
54.254985 -26.820245 218.300390 136 86 74
54.719537 -9.331824 214.802599 166 124 105
-53.294683 10.019310 59.630340 37 80 69
55.967373 -18.065214 217.732453 101 56 53
54.997981 -11.551017 215.274954 100 61 52
-88.738865 -32.301155 16.227412 106 79 69
55.466336 9.821473 211.066723 126 91 77
55.504853 11.672263 210.633159 47 21 15
56.450349 -44.264928 219.326353 62 37 35
56.413698 -69.457549 222.918320 132 94 76
54.076445 -68.741429 219.223857 132 94 76
56.479037 14.293922 209.645200 84 65 58
56.508732 -16.087584 214.053464 52 32 27
56.508732 -16.087584 214.053464 52 32 27
56.834215 -6.172684 212.166142 46 30 24
57.062846 10.273921 209.486461 38 24 18
57.633948 -21.616311 213.880348 162 123 101
58.001316 -20.808689 213.372421 95 55 50
58.598542 -26.357317 214.381695 146 106 87
-54.853678 10.053919 53.508604 12 8 3
58.042663 -37.453786 214.654350 103 56 52
58.831108 -30.583408 214.443040 101 63 58
58.200932 -39.552212 214.910603 186 139 117
58.773667 -27.486926 213.276243 102 56 49
59.936112 -38.016337 216.090322 165 125 107
58.854526 -21.567212 212.117577 55 29 35
-54.784966 9.276875 52.832246 27 50 12
58.982867 -4.498138 209.316063 159 122 102
58.602053 -11.559641 209.716606 75 37 35
59.433943 -32.145908 213.762164 70 38 39
59.433943 -32.145908 213.762164 70 38 39
59.271991 -9.054045 209.729123 118 73 60
59.180784 -11.732472 209.051681 145 108 88
60.151011 -37.853986 214.189124 180 135 114
59.513444 -40.019137 213.092685 168 129 107
59.751117 7.684162 206.041884 115 84 75
60.130197 -13.511287 209.400320 145 107 89
60.437888 -17.789401 210.080504 67 35 40
61.335462 -37.851545 213.808370 178 134 117
60.130650 0.216053 206.538510 59 30 26
60.658538 -26.703987 210.794330 134 101 82
61.269826 -0.573126 207.592583 158 119 105
60.607380 8.345535 205.365968 133 95 77
60.551983 -0.597088 206.546736 158 119 105
59.788591 -65.059578 214.915204 169 125 108
60.228711 3.583350 205.294728 107 80 66
60.956079 -11.999581 208.037233 95 56 47
61.631525 -37.431619 212.527132 102 56 49
61.029780 -19.671759 208.655500 163 124 109
61.255836 -25.608304 209.274817 155 116 101
61.519343 4.605294 204.961586 60 28 23
61.739630 -33.120450 210.584641 145 108 94
61.527407 -22.579463 208.661342 148 115 99
61.749858 -17.598847 207.980728 129 95 79
61.787289 -35.653183 210.634542 74 50 50
61.868632 -19.131744 208.241701 77 40 36
61.676276 0.938568 205.047083 166 120 103
61.848450 6.657449 204.171705 127 95 82
61.978519 11.925025 202.928567 109 80 65
62.326771 -30.737337 208.878374 46 26 25
62.383217 -32.257730 209.089065 134 102 89
62.425280 -24.222541 207.643151 52 25 28
62.407857 2.919349 203.701282 78 40 38
62.301624 -9.348199 204.623270 146 109 95
62.855572 -10.298018 205.443168 145 109 91
63.329339 -35.018569 208.811760 106 64 52
63.149881 -4.346553 204.032564 153 116 96
63.135862 -32.503670 207.751632 70 42 41
63.147318 -12.157673 204.710817 95 53 48
63.508379 -16.460536 205.410361 153 115 97
63.604510 -29.713929 207.237840 58 37 35
64.064783 -34.529904 208.408713 165 123 104
64.485991 -32.605124 207.106280 95 51 44
64.485991 -32.605124 207.106280 95 51 44
66.880870 -47.077829 211.779356 106 91 95
-53.799146 11.220714 47.141773 100 65 51
65.086001 -32.542503 206.216049 171 128 109
65.288001 -3.538550 201.161814 69 33 33
-53.139961 11.155900 47.067791 175 130 109
66.862863 -19.154644 204.579878 51 30 38
65.994281 -2.529410 200.991869 110 65 52
70.177138 -8.773139 206.597400 34 26 27
67.722279 -18.503788 204.782224 140 109 94
67.614603 -15.856843 204.174066 147 114 95
66.751295 -31.514457 204.900789 131 84 70
67.267704 -11.672277 202.748823 110 81 67
66.174078 -2.935895 199.632895 172 124 106
65.697050 -7.956304 199.331081 96 85 95
109.203219 -123.961270 270.104909 107 69 65
67.216581 6.660287 197.814035 129 89 71
67.216581 6.660287 197.814035 129 89 71
67.715091 -18.993559 201.487184 89 60 46
66.982555 3.262821 197.128284 35 20 18
-51.291502 11.087906 46.951258 194 151 130
68.345535 -5.830089 199.799156 145 109 91
68.888313 -9.409445 199.507046 175 138 118
68.051547 1.857941 196.088529 154 113 91
69.333184 -8.099446 197.684097 26 17 20
70.360959 -2.423458 195.210290 150 110 92
71.200454 -12.196839 196.981037 77 50 53
72.532386 -19.642590 199.052453 150 117 98
-45.480806 17.702127 49.507269 16 19 4
-90.842503 -31.982654 0.731544 141 94 73
72.022659 -81.836081 203.632545 109 83 76
72.022659 -81.836081 203.632545 109 83 76
-85.952336 -13.658050 3.182691 98 58 46
73.218250 -8.837436 193.641591 30 19 22
57.360643 13.834172 171.296728 31 23 23
74.103963 -9.956502 194.395924 71 41 40
75.706768 -21.466528 195.914412 163 125 107
88.235253 -95.832437 219.850039 104 68 60
74.335337 1.306781 190.073037 104 60 47
74.688137 -27.921942 194.271588 107 90 101
75.715035 -23.689993 192.955387 64 50 62
73.124939 5.160064 186.049449 164 126 108
75.542146 -4.776217 189.440942 88 44 37
75.379306 -0.890107 187.927163 178 128 110
119.891858 -127.521718 255.363464 255 230 216
76.578128 0.841408 187.037253 128 79 65
78.695816 -29.079521 192.348504 124 75 65
78.480619 9.125984 182.762909 48 27 29
92.854595 -115.288675 215.275359 255 230 216
78.846264 13.076083 182.341874 100 86 92
80.533457 16.276494 180.363905 104 80 92
80.820137 17.688696 180.098617 44 33 43
80.053800 14.333813 176.810515 79 52 48
80.053800 14.333813 176.810515 79 52 48
81.963128 12.724167 178.944051 174 130 107
-57.980579 -49.584374 30.979377 195 153 141
83.978605 17.077895 177.033842 50 38 50
83.315569 15.768084 176.367009 119 93 107
71.588296 26.499227 155.489528 61 28 2
71.704990 25.948393 155.454910 135 113 72
73.313975 32.427678 155.028057 110 61 51
-130.421591 -22.909284 -52.393365 253 255 255
73.913151 31.349075 155.289912 104 68 62
70.835257 32.789370 151.411915 149 117 94
73.193675 35.538259 153.348792 144 113 82
73.948491 32.283437 154.404545 109 62 54
74.545330 31.580231 154.803813 157 113 89
85.281396 -12.117474 170.713830 76 64 76
69.866204 -19.419341 154.623294 85 45 40
142.745864 -20.572142 229.903889 82 48 32
74.562305 30.729833 154.032171 66 57 48
91.202068 -22.958422 177.582598 80 48 37
90.782624 -19.259103 176.388335 82 53 44
73.746741 29.688627 152.804661 125 84 61
69.514120 38.336107 147.324610 137 100 72
69.514120 38.336107 147.324610 137 100 72
73.937601 37.296841 152.012670 40 35 14
76.254851 32.653743 154.913449 133 90 63
76.254851 32.653743 154.913449 133 90 63
74.811471 33.532384 152.446270 151 110 87
75.876325 30.302164 153.505337 54 15 13
91.468859 -66.438878 180.616939 62 45 49
74.700946 35.121366 151.370013 144 112 77
75.950968 29.439107 152.919626 132 80 63
75.556821 30.796176 152.289259 169 109 87
75.556821 30.796176 152.289259 169 109 87
75.999522 30.136764 152.119863 60 18 13
73.554283 37.239176 148.634076 125 89 65
111.236465 -101.196003 202.064943 189 137 124
111.236465 -101.196003 202.064943 189 137 124
133.281720 -123.809397 227.082801 51 20 23
-77.687484 -38.958815 2.125203 135 86 84
77.269948 28.092784 151.542711 21 28 7
103.747201 -20.267664 182.351804 167 130 116
105.535245 -97.061586 192.282295 102 62 57
78.252077 38.843006 149.420965 105 68 48
77.866572 40.992811 148.176444 7 5 4
117.534971 -20.792182 195.507562 169 133 115
79.802305 40.456575 146.366632 61 49 37
120.720589 -21.202809 194.296086 179 140 125
1.225971 -17.212017 74.412638 146 109 87
97.851884 -69.296372 175.239110 81 67 78
-115.682352 -16.784646 -41.343874 76 44 31
112.735140 -99.529469 191.005576 18 9 5
107.001626 -100.019550 185.034454 29 16 14
123.647416 -21.687487 192.865014 168 132 114
79.270059 38.995749 141.913855 11 8 4
109.248567 -94.469374 182.693791 102 76 59
94.196409 37.640247 152.891755 12 9 1
94.196409 37.640247 152.891755 12 9 1
149.052823 -133.810949 221.085048 255 226 209
-112.526047 -27.448183 -39.927271 255 234 223
-101.028883 -31.410089 -28.638500 187 147 128
-117.097402 -20.391996 -46.772623 77 59 72
-82.100081 -16.995232 -17.609312 85 45 40
-82.262105 -17.313227 -17.925651 80 48 37
-87.987429 -36.645031 -22.870672 255 229 204
-107.813787 -21.906531 -40.996143 180 123 97
-119.206738 -23.921710 -51.524478 187 138 116
-84.782141 -19.259880 -24.130788 74 61 75
-97.323406 -32.773304 -33.289704 255 229 204
-118.481565 -20.921253 -52.250308 142 99 82
-116.041410 -25.364459 -50.958812 254 232 220
-98.632079 -29.132593 -37.103203 29 16 14
-102.983212 -28.298548 -42.745435 128 103 87
-121.233380 -17.653452 -58.986932 87 47 35
-121.291614 -17.696205 -59.355408 175 138 116
-112.775505 -26.381820 -50.557321 255 229 204
-122.890043 -17.656191 -60.881341 120 97 105
-122.890043 -17.656191 -60.881341 120 97 105
-130.485857 -14.804132 -63.948536 40 21 13
-111.484981 -15.296569 -51.156074 165 114 104
-108.704257 -16.095360 -49.125093 98 55 46
-111.194086 -15.852831 -50.873291 93 51 44
-123.532403 -17.618550 -61.804116 175 138 116
-123.451984 -17.609638 -61.622137 85 45 40
-119.121838 -16.247495 -57.280093 134 99 79
-125.103462 -12.469778 -61.728752 34 23 19
-176.510179 -40.746728 142.531717 83 58 56
-174.258244 -14.915657 139.284790 45 26 35
-163.613474 15.647672 104.726076 145 112 92
48.445216 139.013612 -800.988579 127 76 66
-173.927569 -12.969337 139.221239 122 77 63
-176.579165 -49.856272 143.646562 124 80 67
-178.842652 -79.534346 147.258019 94 59 46
-172.097027 3.464908 138.008153 167 125 106
-178.570235 -79.793173 147.137690 142 106 88
-175.354803 -40.846139 143.340111 173 126 112
-176.083171 -51.091611 144.568527 133 90 73
-176.083171 -51.091611 144.568527 133 90 73
-171.123183 10.837632 137.302899 164 126 108
-175.339496 -42.140827 143.749583 119 71 59
-175.339496 -42.140827 143.749583 119 71 59
-171.426237 6.508348 137.921023 90 61 52
-169.266605 34.666541 135.084069 75 53 47
-176.488841 -45.982593 148.728704 162 127 113
-178.118098 -79.739255 147.472143 97 52 38
-178.118098 -79.739255 147.472143 97 52 38
-178.112435 -81.577998 147.147083 79 41 39
-174.932587 -41.438302 143.708432 115 66 50
-168.727446 34.156621 135.313165 145 109 93
-78.062451 30.624023 -291.991615 188 143 129
-78.062451 30.624023 -291.991615 188 143 129
-171.590090 -3.288244 139.626193 96 61 47
-168.790269 29.533201 136.002696 156 118 100
-174.359918 -41.211480 144.269884 123 78 64
-174.338758 -43.067619 144.561517 114 70 57
-167.965245 34.543669 135.352242 82 56 49
-173.299921 -33.084515 143.871593 148 102 84
-168.664002 24.786784 137.025309 155 117 99
-174.759591 -53.368151 146.277988 110 89 98
-168.816924 22.249646 137.642574 156 120 102
-171.023560 -6.988507 140.808356 160 118 106
-170.913637 -6.853283 140.714133 160 118 105
-170.330250 -2.910070 140.510738 162 122 103
-168.228102 22.691175 137.735784 97 61 45
-174.099731 -53.572309 146.195555 53 28 38
-168.886507 14.951736 139.084888 165 123 104
-170.351827 -5.875045 141.126513 165 122 105
-170.593989 -8.985309 141.539848 86 57 43
-170.395517 -10.782031 142.152178 115 75 57
-168.735957 10.181983 139.667332 159 123 105
-170.009220 -8.596344 141.698837 119 112 115
-169.140291 3.296092 140.784681 91 57 51
-169.666648 -6.788912 141.994309 162 122 103
-169.567454 -10.072869 141.352975 125 97 96
-169.083238 -2.673869 141.631901 101 58 43
-169.538832 -8.151479 142.495096 90 100 107
-182.189465 6.533460 214.326382 162 126 110
-169.488633 -9.145802 142.900610 61 65 76
-169.191658 -6.933969 142.509711 93 57 47
-169.188070 -7.743655 142.745590 136 129 126
-168.190861 3.322957 141.272104 95 63 50
-168.229926 0.323275 141.612923 89 62 52
-168.863714 -7.436491 142.864573 61 49 61
-168.876410 -8.436424 142.991161 124 124 118
-168.876410 -8.436424 142.991161 124 124 118
-168.822038 -8.038297 142.862403 52 46 51
-168.773782 -7.020108 143.002748 157 116 107
-168.855679 -10.001943 143.450069 132 99 90
-165.757155 29.337469 138.674903 86 57 50
-168.780375 -9.577096 143.669093 130 127 122
-168.445837 -7.883007 143.511415 133 126 129
-168.279743 -8.876232 143.550122 36 30 47
-167.972302 -9.721216 143.797600 127 124 126
-167.833507 -8.451239 144.177318 113 112 122
-164.811313 29.406881 139.440429 84 56 45
-165.771770 14.717814 141.176546 88 56 50
-172.575772 -77.073932 151.376200 135 100 87
-164.799082 22.109607 140.785599 81 53 46
-165.552616 11.747656 142.188370 161 124 104
-164.544547 19.054207 141.064203 165 129 113
-165.587127 4.385852 143.536425 171 129 110
-165.803957 -4.303832 144.436455 164 121 106
-165.803957 -4.303832 144.436455 164 121 106
-170.773482 -71.696740 152.344453 92 63 49
-162.563801 35.536996 140.207565 78 54 48
-166.413593 -14.392900 146.837306 115 83 72
-170.765436 -75.359446 153.259599 60 53 56
-164.726162 4.411226 144.093382 164 130 117
-162.103534 35.113001 140.814567 142 109 94
-169.937027 -70.739955 153.105175 57 47 59
-169.899416 -71.091002 152.964783 114 112 118
-169.892669 -71.514452 153.038526 62 51 59
-169.670904 -71.014309 153.206074 111 113 113
-166.553974 -30.599886 149.106216 108 72 64
-166.553974 -30.599886 149.106216 108 72 64
-169.008505 -68.038487 152.303421 115 112 121
-161.335421 35.638478 141.057849 82 60 54
-169.709432 -80.207354 154.723513 128 88 76
-161.295545 30.534568 142.440474 150 116 100
-161.455941 26.173696 142.703068 82 55 45
-169.331026 -76.549757 156.454813 150 112 94
-168.342733 -68.133479 154.003227 113 113 113
-162.181771 11.147968 145.121598 159 123 105
-161.512220 18.968457 144.062424 88 61 51
-167.933869 -67.960370 154.206645 57 40 51
-162.297952 8.559760 145.656180 165 125 106
-167.861032 -68.843317 154.206336 52 44 54
-168.314004 -77.499861 155.636656 146 111 91
-162.274468 3.729452 146.532595 154 121 102
-159.804070 35.974106 142.579329 82 58 52
-168.345881 -80.311030 156.057012 121 89 76
-162.292290 1.931623 146.857023 162 126 110
-162.292290 1.931623 146.857023 162 126 110
-167.930317 -76.158333 155.742264 98 58 39
-167.710686 -73.937941 155.405116 99 106 109
-168.018258 -78.173023 155.990481 77 48 43
-167.583227 -72.466981 155.605614 56 57 67
-163.931024 -66.648513 134.448171 62 51 59
-163.816273 -65.786856 134.030616 57 47 59
-161.695373 4.271188 146.741748 96 63 54
-162.658727 -9.424592 148.553586 153 114 106
-162.658727 -9.424592 148.553586 153 114 106
-163.615942 -66.084319 134.259045 111 113 113
-161.815000 1.349956 147.274745 87 58 51
-161.815000 1.349956 147.274745 87 58 51
-162.471139 -7.760930 148.369193 131 126 125
-167.302835 -77.974492 156.424522 142 105 91
-167.238343 -80.078202 156.732690 125 87 75
-158.837974 29.922047 144.612038 145 110 96
-158.975446 27.313313 145.168626 153 118 98
-158.921170 27.261075 144.973218 153 118 98
-158.819890 22.635961 145.865691 151 116 102
-158.245111 30.321839 144.878554 79 50 45
-162.649524 -31.536943 152.410638 162 124 112
-162.649524 -31.536943 152.410638 162 124 112
-165.496850 -71.768326 157.022989 115 116 120
-165.620351 -74.583262 157.465446 110 106 112
-165.092862 -70.491052 157.196796 59 55 66
-159.375930 8.411226 148.222423 90 61 54
-159.023488 12.713565 147.647643 159 122 100
-158.405423 20.614299 146.537471 102 62 50
-164.977837 -70.784962 157.184112 123 125 126
-165.234292 -74.757802 157.776284 66 59 64
-157.082307 30.698866 146.548378 81 54 50
-157.327902 27.588055 147.144639 152 120 97
-156.974077 30.623674 146.150899 81 54 50
-157.093275 27.067441 147.318578 82 53 46
-158.298743 8.467077 148.766851 90 60 49
-157.015681 27.019832 147.032964 82 53 46
-156.337762 24.882746 142.740333 152 120 97
-156.946373 23.349454 147.428846 81 51 46
-158.952677 -5.602854 150.844646 117 83 83
-166.723239 -76.125383 179.614949 111 114 122
-156.376529 30.316451 146.621954 141 107 91
-156.972861 19.761297 148.128378 86 53 50
-157.033932 16.033466 148.867321 88 57 48
-155.957198 29.773545 147.322667 47 30 43
-157.128692 12.342814 149.386489 83 54 50
-157.128692 12.342814 149.386489 83 54 50
-157.403803 8.724248 150.008094 91 59 54
-157.403803 8.724248 150.008094 91 59 54
-156.453681 21.537831 149.179232 146 110 94
-162.608802 -67.899734 158.396053 54 48 67
-162.796438 -70.696610 159.063554 122 117 119
-157.397676 4.992863 150.604868 94 59 55
-157.397676 4.992863 150.604868 94 59 55
-155.128455 34.969831 146.958041 95 62 47
-162.544692 -70.999992 159.341776 53 49 60
-154.864752 36.630201 146.876013 80 55 51
-155.107319 31.920364 147.491360 94 59 49
-162.584960 -75.237727 160.080373 168 125 110
-154.120708 41.693640 144.914305 17 11 12
-106.421018 -36.252916 -258.677149 162 126 110
-161.279631 -58.817035 158.249950 103 74 69
-162.585378 -79.189825 160.693014 144 105 91
-156.944287 1.229191 151.799273 128 97 82
-154.674554 31.356302 147.286451 139 106 97
-156.959081 1.298836 152.198446 128 98 81
-156.681991 2.939354 151.061225 169 126 111
-156.792700 -0.139247 151.160634 102 66 50
-158.221698 -20.377797 154.072595 150 115 101
-156.526494 0.774883 151.978850 81 52 45
-156.378400 1.932426 151.985252 84 58 51
-154.153061 15.827511 146.530235 56 33 25
-155.104685 19.421954 151.850486 29 15 9
-154.928732 18.692046 151.022565 30 19 11
-154.875648 14.755824 151.004541 56 33 25
-154.309821 18.816017 147.296882 32 16 10
-156.029952 1.047413 152.423966 147 114 105
-156.528807 -10.404763 153.929567 128 86 74
-157.840025 -30.073398 155.721688 161 119 106
-154.192948 25.473469 151.866984 44 20 22
-160.549986 -70.066506 160.894716 126 118 118
-154.663372 16.221003 152.052748 21 16 15
-160.448563 -69.368994 160.833764 58 44 55
-160.279155 -67.268622 160.632741 65 52 66
-158.688235 36.654013 195.473385 175 135 117
-156.266081 -12.350691 154.335690 59 37 39
-156.266081 -12.350691 154.335690 59 37 39
-160.299766 -70.394772 161.202776 62 48 54
-160.299766 -70.394772 161.202776 62 48 54
-154.431725 19.972377 154.194582 34 17 20
-157.501638 -31.054008 156.782866 148 99 89
-153.602326 19.235474 149.596286 40 19 27
-152.200949 40.705103 146.953928 20 15 16
-160.350502 -74.604195 161.913908 165 125 107
-153.364360 28.076300 152.223599 49 30 17
-155.858028 -12.897222 154.470265 138 118 123
-153.414440 25.631687 152.438152 58 30 19
-160.276687 -78.687108 162.475908 145 109 93
-157.543480 -38.727605 158.138669 131 88 69
-159.736609 -73.597741 162.704360 70 71 81
-152.922225 27.812815 152.919531 44 31 23
-155.482316 -15.301479 155.935907 129 106 110
-154.076850 0.274574 154.107773 89 57 51
-154.797399 -4.801679 158.103514 148 114 98
-152.543688 25.887126 153.352892 47 26 24
-153.303647 13.789654 154.465699 57 31 17
-156.685984 -39.336687 158.827937 180 136 119
-156.891263 14.740783 188.420081 45 25 24
-152.898681 13.481185 155.379486 42 28 22
-132.173502 -5.108446 26.965567 38 26 16
-154.252791 -17.967147 153.826201 51 33 26
-154.245734 -17.961781 153.801775 51 33 26
-151.710021 29.111600 153.608537 147 104 95
-154.343736 -18.990946 154.356539 65 40 30
-156.142366 -40.984973 159.648120 158 122 104
-153.429353 -20.455232 149.312758 65 40 30
-151.661313 25.325295 154.001904 171 127 110
-156.592607 -50.506955 160.801947 161 125 109
-150.625300 36.576802 150.618851 56 36 35
-155.833304 -41.582793 159.940076 118 78 60
-150.126064 39.602810 148.791325 19 13 14
-154.021680 -13.098411 159.502077 190 145 131
-154.021680 -13.098411 159.502077 190 145 131
-156.117702 -48.801157 161.045361 124 79 68
-154.638278 -25.569844 159.322882 34 22 18
-155.407298 -39.198273 159.737146 100 67 52
-152.621889 1.879047 155.069792 167 127 115
-156.153643 -50.970638 160.949552 60 36 38
-150.256360 35.831073 151.105797 63 38 42
-155.064809 -35.605079 159.294832 81 59 61
-149.937785 38.419315 150.494444 89 77 89
-154.946184 -34.551930 159.949541 37 18 10
-152.422309 0.963048 155.450869 104 63 48
-157.124782 -68.856287 163.527167 121 76 65
-151.685321 14.835598 155.919039 179 134 120
-152.413046 0.556968 155.447054 111 67 50
-152.413046 0.556968 155.447054 111 67 50
-155.590653 -47.351152 160.952318 176 133 118
-151.317465 20.381151 156.040084 152 107 80
-152.908123 -8.697890 156.048799 114 75 67
-155.781281 -51.451391 161.091089 134 108 114
-151.056874 22.249348 155.120575 163 124 102
-151.056874 22.249348 155.120575 163 124 102
-154.869795 -37.497082 160.057795 95 65 70
-150.994730 21.933810 155.177832 83 25 13
-150.994730 21.933810 155.177832 83 25 13
-154.972255 -40.368643 160.332990 168 124 111
-152.147710 1.506298 155.531943 151 112 103
-150.495136 23.418139 155.539942 25 19 14
-154.984140 -46.802244 161.387312 123 81 69
-153.914118 -27.344605 161.573243 200 156 139
-158.592391 -29.842877 206.397676 197 153 136
-82.089210 -8.448138 -522.991991 83 46 38
-151.684284 0.268164 156.052279 106 65 50
-154.404330 -40.278938 160.787940 171 127 110
-151.374340 4.552073 155.939949 92 61 52
-156.939864 -24.215075 195.856023 79 45 39
-154.171550 -37.962702 160.731983 148 120 113
-146.958196 22.532304 122.656441 52 29 21
-150.332797 21.760280 155.770421 193 127 108
-151.423216 2.635822 156.254578 101 69 58
-148.986006 36.939460 151.800525 129 97 84
-151.978886 -7.524662 157.371414 122 77 66
-153.667700 -33.958629 160.775042 76 61 58
-149.462926 28.987521 155.203092 175 135 117
-149.869001 22.837074 156.011069 32 18 19
-149.304271 29.554316 154.633629 175 132 115
-149.304271 29.554316 154.633629 175 132 115
-149.756348 22.114202 156.345725 82 26 9
-150.555634 10.244295 157.848394 52 35 26
-89.311010 -85.356379 -511.722994 97 44 41
-148.236084 38.661602 150.765896 24 16 16
-148.236084 38.661602 150.765896 24 16 16
-153.547788 -38.737938 161.350524 95 64 63
-150.774205 2.256487 156.641448 154 120 107
-151.998127 -13.002053 160.523641 159 111 99
-150.770974 2.251166 156.626439 154 120 107
-154.473233 -51.785189 163.956785 163 118 107
-150.857019 0.623734 156.906629 162 121 106
-85.810935 -2.173472 -494.348955 72 43 38
-153.452122 -39.060304 161.470163 151 126 124
-153.428006 -39.406088 161.486077 98 66 61
-153.428006 -39.406088 161.486077 98 66 61
-153.412378 -39.387414 161.425126 98 66 61
-153.934681 -47.206241 162.441576 126 82 65
-148.567009 32.933149 153.074837 94 60 47
-150.507426 3.649561 156.681263 168 124 111
-149.409580 22.451288 156.369066 165 134 119
-149.409580 22.451288 156.369066 165 134 119
-150.998366 -20.142762 152.432823 66 35 36
-146.116102 22.562404 123.089981 49 30 17
-151.738238 -13.199443 160.924315 198 151 137
-150.434327 2.630844 157.017303 100 60 55
-146.200323 20.491928 123.447835 58 30 19
-153.671932 -46.878687 162.656629 169 130 116
-150.975418 -6.303636 158.087659 97 67 62
-150.975418 -6.303636 158.087659 97 67 62
-153.092003 -39.029390 161.958575 157 128 121
-153.092003 -39.029390 161.958575 157 128 121
-150.827718 -5.561113 158.043420 109 74 64
-153.355157 -43.698394 162.567699 165 130 110
-149.919355 11.091341 158.512163 55 26 22
-150.406480 0.042238 157.290816 98 60 48
-149.052489 22.920634 156.631064 57 31 17
-153.103340 -40.973035 162.222004 88 77 87
-149.066687 22.097300 156.600618 56 31 15
-148.536444 28.399080 156.350398 59 42 29
-148.536444 28.399080 156.350398 59 42 29
-265.869617 -219.239616 1255.855560 122 76 59
-153.069913 -44.102257 162.671912 115 72 57
-152.399230 -30.786964 163.873637 167 127 109
-257.982707 -255.550981 1147.090340 180 139 124
-152.122748 -27.560937 163.083982 199 156 141
