ply
        format ascii 1.0
        element vertex 939
        property float x
        property float y
        property float z
        property uchar blue
        property uchar green
        property uchar red
        end_header
        0.000000 0.000000 0.000000 0 0 0
-871.098518 102.926171 1894.670105 116 121 130
-853.587532 -390.287566 1856.881142 79 48 61
-853.001881 -377.207732 1854.957008 88 42 58
-858.242130 -297.164011 1871.918869 103 77 130
-856.098080 -170.607007 1866.799927 114 134 139
-846.668339 -338.554525 1857.047653 39 29 54
-853.676033 -100.399113 1874.526024 25 51 25
-845.443726 -388.909769 1857.156563 132 139 155
-846.687698 -301.081204 1860.023499 42 98 138
-851.259708 -83.887154 1869.891357 32 46 36
-850.615311 -135.693824 1873.534966 105 119 104
-852.708912 -141.588652 1879.811668 21 48 20
-854.150295 93.226725 1895.311928 158 168 175
-840.159321 -305.314541 1861.819077 30 98 142
-845.440006 -135.648537 1874.649239 54 92 117
-845.276260 -264.561582 1879.341507 34 42 49
-834.733963 -369.902873 1857.296944 54 94 132
-842.873096 -118.982422 1877.667046 23 92 141
-841.397572 -139.700317 1877.127838 22 44 30
-842.561150 -111.655903 1880.109978 3 43 76
-834.866238 -304.456162 1865.097237 21 99 140
-831.937122 -363.981581 1860.766602 13 32 60
-839.651299 -106.153882 1879.828072 27 89 137
-849.917603 93.328440 1912.435341 131 150 164
-854.624462 -45.110291 1929.461479 37 70 97
-843.868160 102.919567 1895.368767 59 90 116
-836.229229 -83.601373 1881.376648 29 47 52
-802.109814 28.504646 1899.159431 128 137 141
-555.212688 -79.575777 1165.656567 143 144 141
-575.771475 -119.638121 1611.815834 149 149 143
-469.673252 97.316182 1648.246193 164 170 170
-468.675900 63.029760 1658.112907 115 119 119
-468.675900 63.029760 1658.112907 115 119 119
-306.018257 -30.709872 683.881712 20 19 23
-449.712467 -123.192477 1638.261223 33 29 35
-449.712467 -123.192477 1638.261223 33 29 35
-438.425493 112.630904 1726.727486 28 33 29
-436.779404 -104.023492 1810.447693 22 22 22
-472.797298 12.021195 2247.110176 81 62 39
-481.899881 50.748163 2463.195038 126 127 124
-334.126663 -15.106508 1185.994339 88 88 82
-334.126663 -15.106508 1185.994339 88 88 82
-337.302876 3.485246 1261.635494 88 88 82
-377.458978 -194.923162 1697.319412 170 164 157
-318.938184 -119.841170 1807.062531 23 24 21
-287.643456 -139.833367 1889.475822 174 167 157
-857.303238 -280.733943 1858.028984 90 71 116
-857.303238 -280.733943 1858.028984 90 71 116
-850.343227 -375.722909 1846.305084 86 43 58
-853.837681 -305.073571 1862.398338 97 82 127
-854.898548 -259.534645 1871.084976 44 79 67
-855.404091 -261.647439 1878.615952 27 37 32
-855.338478 -100.210178 1879.811287 29 56 28
-851.006317 -140.872049 1873.611259 19 49 20
-852.250481 -135.805786 1878.804779 120 133 125
-849.836540 -113.705361 1881.154251 33 42 41
-840.083885 -334.402227 1855.787468 27 33 52
-845.755196 -109.293497 1874.553871 53 91 124
-840.372467 -269.046807 1864.587402 1 59 92
-831.901836 -296.770835 1855.746269 26 99 141
-841.484547 -92.727095 1881.822586 22 91 140
-830.110168 -363.211727 1854.872704 14 33 56
-838.721275 -105.615902 1876.147079 24 91 138
-827.982903 -303.963661 1859.277534 4 33 64
-827.982903 -303.963661 1859.277534 4 33 64
-316.205025 -18.142165 30.031896 161 158 155
-466.051435 20.410877 1585.623264 122 126 125
-473.981619 23.719168 1686.192703 122 126 125
-473.981619 23.719168 1686.192703 122 126 125
-474.215698 64.732635 1713.370132 115 116 113
-469.486904 31.879306 1712.645531 126 130 129
-469.486904 31.879306 1712.645531 126 130 129
-461.475134 1.411880 2168.508720 133 130 113
-465.892267 57.545608 2233.060837 65 46 43
-466.473436 81.979078 2242.631721 60 45 44
-455.167389 -77.515465 2132.432938 38 38 39
-458.514977 -31.644538 2178.381348 47 44 41
-464.444351 4.249953 2263.698387 78 78 59
-447.284222 -169.598508 2613.777733 77 77 78
-447.343397 -138.211036 2614.487839 105 101 101
-326.877403 152.834916 1938.206863 27 30 22
-326.049328 172.249961 2157.764053 27 30 22
-326.049328 172.249961 2157.764053 27 30 22
-292.893195 81.330377 2242.994499 131 132 129
-291.257238 44.035059 2291.979218 139 144 140
-285.060978 -130.045736 2109.358025 155 151 144
-277.670813 -128.240955 2289.210892 153 149 142
-278.219891 28.795066 2277.237892 144 144 144
-265.293956 135.646558 2143.764114 175 178 181
-854.181290 -396.177864 1851.817703 83 48 59
-857.318115 -280.648804 1858.294868 83 64 109
-851.542377 -377.145815 1850.963783 84 42 59
-862.753201 86.281639 1879.405212 130 142 152
-849.746227 -298.037767 1858.135414 26 25 65
-846.307564 -349.277782 1854.915047 131 109 134
-846.396637 -339.141417 1856.881905 39 28 56
-851.540470 -124.643910 1866.586304 17 50 23
-852.161503 -99.213934 1867.481041 23 48 25
-846.001148 -301.119590 1858.303452 43 97 135
-844.807911 -323.919988 1857.975197 34 97 134
-844.807911 -323.919988 1857.975197 34 97 134
-849.084759 -140.003181 1866.329002 22 46 25
-844.881439 -256.751084 1861.947632 26 47 36
-830.160809 -363.896656 1855.322647 10 32 59
-837.771034 -104.914498 1872.552490 28 92 135
-883.641148 -284.149575 2065.874290 26 47 36
-831.390667 -137.496746 1868.176079 25 42 29
-825.173187 -315.626287 1858.945465 25 33 60
-468.424463 -107.357371 1792.482758 147 144 141
-455.986452 -119.693112 1661.566925 153 149 142
-406.036949 -16.674057 2426.217461 124 118 111
-403.152847 -32.896346 2410.343361 116 113 103
-398.271680 -148.090625 2365.926170 112 106 94
-298.932433 82.165945 2209.606171 130 132 126
-291.377115 90.108991 2219.534683 126 125 122
-856.946468 -280.314755 1856.693268 97 69 122
-852.064133 -377.654958 1852.810669 85 46 56
-851.715660 -264.045286 1859.246445 67 67 67
-851.715660 -264.045286 1859.246445 67 67 67
-846.493244 -349.513388 1855.496025 134 115 139
-846.252728 -339.001346 1855.795860 40 31 59
-852.064610 -99.010330 1867.627144 24 51 29
-843.699646 -388.831806 1852.466965 132 136 150
-846.912575 -261.100721 1860.390854 78 85 81
-848.714542 -139.746904 1865.135002 21 46 23
-839.510155 -298.116302 1859.639359 25 95 134
-836.372566 -392.408943 1854.450607 127 137 159
-858.888245 -291.279006 2015.329552 19 45 67
-830.542183 -364.439058 1856.735229 10 31 60
-837.380219 -104.644585 1871.354485 26 90 140
-834.220219 -81.921023 1872.254372 27 45 50
-834.220219 -81.921023 1872.254372 27 45 50
-798.346519 30.722374 1881.430054 126 134 141
-492.987251 134.650338 2173.212624 162 168 168
-478.512955 -67.291057 1974.908829 153 148 143
-472.858143 -65.456480 2044.982338 153 148 143
-458.832121 50.251359 1131.929493 62 67 63
-419.422102 -177.649975 2304.706573 26 22 22
-419.091177 -177.576101 2308.353806 26 22 22
-424.784756 191.979897 2293.871498 20 21 18
-417.151308 0.723773 2390.701675 24 23 20
-417.262030 -28.499049 2360.136414 24 23 20
-410.801888 -3.438685 2417.173958 117 116 113
-410.586405 10.410006 2391.327286 111 109 103
-409.004402 34.955060 2398.226738 52 46 44
-409.004402 34.955060 2398.226738 52 46 44
-404.968834 -114.983702 2373.420715 127 127 116
-403.742886 -113.363910 2377.867889 135 134 126
-403.420115 19.754669 2402.892303 128 128 117
-399.941993 -163.367593 2375.502396 87 81 74
-394.975638 -150.262022 2381.832123 15 13 14
-369.551444 -97.140878 2167.409706 21 18 15
-369.551444 -97.140878 2167.409706 21 18 15
-359.598279 -219.782901 2240.688324 162 155 150
-322.187209 113.705003 1909.664345 170 174 173
-860.714436 -287.150645 1901.456833 90 69 119
-863.403797 -404.137325 1988.911819 85 44 54
-845.445156 -158.447754 1760.306549 115 135 126
-849.806023 -261.723208 1838.862419 67 67 68
-849.806023 -261.723208 1838.862419 67 67 68
-851.706028 -262.319541 1881.801605 26 39 37
-851.706028 -262.319541 1881.801605 26 39 37
-855.392838 -369.994354 1967.222404 137 115 140
-853.662872 -355.808616 1949.624062 40 29 62
-840.927792 -91.802847 1736.306763 12 42 18
-840.927792 -91.802847 1736.306763 12 42 18
-837.079811 -129.639554 1726.226997 20 49 22
-847.335052 -373.991489 1957.137680 31 31 62
-847.335052 -373.991489 1957.137680 31 31 62
-831.482697 -98.892212 1708.278847 43 91 121
-834.000778 -125.819516 1748.229218 62 94 117
-834.512615 -122.154403 1754.418182 50 91 127
-834.512615 -122.154403 1754.418182 50 91 127
-839.829063 -270.688057 1870.682907 0 52 86
-828.523827 -101.451874 1725.202370 1 41 74
-828.523827 -101.451874 1725.202370 1 41 74
-838.190460 -385.261631 1964.921761 12 32 57
-833.367157 -321.011448 1883.847046 33 96 135
-825.090313 -95.711339 1713.185883 25 89 137
-830.309486 -300.912404 1882.799721 25 96 138
-822.687912 -74.893498 1720.189285 23 44 51
-827.935314 -323.154950 1898.801231 24 36 60
-820.708942 -273.143840 1895.043564 27 44 77
-802.085876 -222.813368 1837.078857 50 63 61
-561.079073 31.805059 481.318855 126 127 124
-860.726929 -287.633300 1903.816605 103 74 134
-850.580311 -45.517337 1728.435326 79 114 141
-868.209171 -389.082360 2031.038094 63 46 57
-873.382854 -429.955244 2126.468468 85 41 58
-831.522465 74.787748 1520.260048 137 149 157
-828.755474 70.292515 1490.268707 45 71 98
-863.329506 -285.634303 2021.814156 64 68 68
-863.329506 -285.634303 2021.814156 64 68 68
-857.508183 -376.288009 2001.998711 134 115 139
-858.941364 -369.203258 2027.915955 49 33 62
-836.336327 -88.436830 1673.117828 31 56 33
-831.522846 -71.090084 1612.448883 21 51 27
-851.205921 -313.155603 1930.714989 42 99 143
-832.688236 -125.403214 1665.126610 17 45 21
-853.621483 -391.263843 2054.071999 38 32 66
-838.942814 -193.211317 1812.530708 93 132 161
-831.691456 -123.507524 1714.477158 59 96 113
-820.952415 77.928418 1559.214020 125 139 149
-825.441265 -105.026388 1667.353439 16 92 140
-825.441265 -105.026388 1667.353439 16 92 140
-818.559170 -77.840269 1589.423752 20 91 140
-824.746132 -35.179093 1680.929947 36 66 94
-824.746132 -35.179093 1680.929947 36 66 94
-823.757172 -88.124537 1679.470444 6 44 82
-823.757172 -88.124537 1679.470444 6 44 82
-848.246574 -414.956188 2127.864838 8 32 66
-823.160267 -94.034040 1683.106613 25 89 137
-840.620232 -389.705992 2024.620628 48 93 125
-807.190037 76.934588 1415.974331 128 151 167
-843.942642 -366.734886 2090.363312 25 29 48
-832.180786 -315.114665 1920.477295 4 33 66
-823.212147 -121.879876 1737.147713 72 100 128
-494.316673 -143.289149 1135.750675 172 166 159
-689.460850 4.458947 -142.927849 96 90 83
-822.946835 42.245963 -1036.093616 20 21 29
-823.604679 45.047385 -1039.522552 158 155 145
-706.034088 3.710745 -250.995207 20 24 24
-611.391592 -28.985554 248.536754 24 26 20
-686.146450 0.121805 -137.729061 25 26 23
-593.901587 -35.248914 334.947920 24 26 20
-603.273344 11.864734 272.605824 146 146 146
-585.410166 -37.222740 359.615684 159 156 146
-601.075697 32.118720 269.751024 177 181 181
-861.196518 -288.196707 1909.943199 100 70 128
-874.354649 -479.773951 2132.680702 142 142 152
-874.081707 -431.136560 2136.073685 87 45 57
-837.482548 -37.782839 1594.857597 20 49 80
-856.585884 -373.408961 1988.578796 145 124 142
-856.459141 -362.673688 1991.979790 45 33 58
-831.560707 -85.319996 1605.420685 26 50 29
-852.482033 -265.059853 1947.098351 48 104 71
-856.454086 -435.888004 2082.430840 43 53 87
-837.492371 -270.011687 1783.628654 31 95 124
-850.292110 -381.880927 2003.698158 34 32 63
-825.534153 -117.698669 1622.022057 58 95 117
-849.912739 -430.856848 2047.675323 137 140 161
-834.627628 -310.707831 1801.073456 20 99 144
-827.561092 -312.753034 1731.366348 27 32 55
-824.457359 -111.910260 1652.256203 11 36 55
-820.600128 -100.974512 1593.133163 17 93 141
-817.661095 -83.816552 1583.944035 1 39 72
-845.252419 -405.643892 2079.423523 16 33 54
-814.006901 -86.926097 1538.422775 25 90 135
-797.853565 77.258253 1281.589317 52 84 114
-836.956692 -314.687824 2092.781258 83 72 121
-791.036510 -211.483192 1666.098022 144 144 144
-705.663538 2.879410 -227.564526 155 154 146
-490.094852 -115.257931 2094.793892 147 145 139
-708.663797 -0.022589 -254.045177 137 141 141
-708.663797 -0.022589 -254.045177 137 141 141
-708.798409 0.345814 -254.664278 137 141 141
-708.798409 0.345814 -254.664278 137 141 141
-709.486532 2.365699 -260.304952 163 158 153
-709.375429 2.327703 -259.408236 162 161 158
-668.078709 1.724633 52.440727 26 25 22
-667.030048 20.198330 59.044605 82 82 76
-666.292238 7.241800 60.948443 128 128 122
-666.041422 7.656192 62.197745 34 40 39
-666.239500 1.648683 59.373313 28 26 27
-666.535950 -15.119523 55.533099 139 127 118
-666.535950 -15.119523 55.533099 139 127 118
-663.480997 9.119939 72.926664 24 24 24
-697.066689 2.285536 -174.392998 24 24 18
-655.298758 1.888721 103.561807 105 105 99
-655.056429 4.691604 105.250013 79 81 75
-654.766703 10.850140 107.234418 75 74 71
-654.766703 10.850140 107.234418 75 74 71
-655.624533 -2.740036 99.987704 27 28 25
-652.873039 17.115384 114.928985 33 27 25
-652.154732 11.901275 118.835795 26 24 24
-653.856421 -14.877972 105.256546 25 25 26
-653.062057 -6.327116 110.377252 27 23 23
-650.380564 5.838868 125.059545 104 96 89
-651.113367 -1.288743 119.250095 90 84 82
-650.431967 12.943438 124.289417 34 34 28
-647.533655 11.144393 137.194145 28 26 20
-647.552061 4.436567 136.310923 26 24 24
-649.228001 -11.803494 124.628043 26 24 25
-644.879532 12.245032 148.342168 116 113 110
-645.756054 1.950355 142.239928 107 108 100
-696.334124 1.002470 -173.716891 107 104 101
-644.484520 5.425987 149.567652 98 93 83
-644.700336 10.740080 148.631668 63 55 48
-644.700336 10.740080 148.631668 63 55 48
-642.182493 -0.581963 158.185315 25 25 19
-643.797064 -12.880738 147.302222 26 22 22
-642.294788 2.531791 157.014441 25 24 21
-644.040108 -19.359326 145.180750 29 25 26
-641.273117 -14.283758 157.141244 99 105 98
-637.707043 4.374401 178.804612 28 27 19
-667.681551 -10.927676 1.239677 30 24 22
-636.437988 -9.373443 179.335403 24 24 24
-631.602907 -7.275882 201.725292 102 97 87
-633.665133 -15.180622 189.219236 105 106 103
-633.665133 -15.180622 189.219236 105 106 103
-628.131008 -10.696509 215.754414 26 23 20
-628.658295 -6.529203 212.975287 21 26 22
-633.383894 -13.828990 185.086989 20 24 23
-629.526758 -12.691236 207.131624 24 24 24
-629.422808 -16.766927 207.131696 24 24 25
-624.335766 1.723583 232.234073 102 104 93
-623.577070 -13.254860 234.423399 55 52 49
-623.577070 -13.254860 234.423399 55 52 49
-618.726540 -1.117005 257.244062 27 25 25
-618.707943 -1.100492 257.335329 27 25 25
-619.024992 -14.385320 253.630972 25 25 25
-619.024992 -14.385320 253.630972 25 25 25
-691.715097 2.133919 -148.840356 40 47 43
-612.437201 4.210288 284.418035 28 34 27
-426.282406 102.047682 1247.881603 29 31 25
-558.676338 -8.134725 523.272610 25 26 23
-555.925846 -13.196303 533.931351 124 120 113
-564.386892 -3.836206 491.013813 162 161 158
-564.386892 -3.836206 491.013813 162 161 158
-563.530731 -19.399606 494.886017 88 81 82
-561.854649 10.234392 503.984880 43 38 42
-558.165598 34.546646 523.233461 55 55 56
-564.227295 -9.079181 490.971184 26 25 29
-562.401199 -43.093494 498.910618 171 160 149
-562.401199 -43.093494 498.910618 171 160 149
-561.614561 -30.154905 502.985477 160 155 145
-696.164560 0.419157 -171.212173 129 133 133
-714.219379 -0.379037 -267.583394 137 141 141
-714.219379 -0.379037 -267.583394 137 141 141
-427.353191 27.958897 1115.593624 137 141 141
-393.464422 56.673741 1264.982510 130 129 126
-432.615280 77.609503 1006.542778 176 180 180
-646.665478 -10.449814 -38.302413 155 154 146
-663.694715 -6.866828 -93.060869 155 154 146
-730.508947 -7.469620 209.891129 18 50 80
-723.867512 -15.471995 139.990938 17 43 24
-700.041628 -0.126934 -186.361802 17 43 24
-746.593618 -42.588866 463.127661 125 134 125
-746.593618 -42.588866 463.127661 125 134 125
-738.126326 -36.308995 366.635585 59 93 118
-752.369404 -77.191073 592.053270 16 59 78
-726.158428 -22.273006 203.308487 23 93 144
-714.153194 -11.034081 31.685615 25 94 141
-697.386646 3.314382 -231.937480 159 160 157
-666.614485 -17.902537 81.194603 29 23 21
-661.649370 12.785794 111.395872 68 70 64
-666.009712 -8.569786 65.405673 26 22 22
-663.960600 -2.057409 82.177615 91 91 80
-664.967966 -7.844242 71.458358 165 159 147
-665.571308 -13.391428 63.598245 31 23 28
-661.048985 3.983808 102.052820 28 27 24
-656.432676 20.471343 142.491043 26 31 27
-661.745739 2.743256 96.101511 130 126 119
-661.745739 2.743256 96.101511 130 126 119
-663.745785 -9.457385 77.287287 26 24 25
-658.271790 14.192791 124.778926 32 25 26
-663.752604 -6.695293 76.072055 26 23 27
-653.692722 30.006373 162.467241 29 30 22
-662.436199 -12.100812 80.603594 26 23 20
-662.456512 -9.647426 80.328995 22 21 18
-660.268021 -1.287425 97.843033 24 23 20
-660.029507 1.413366 100.106037 25 24 21
-663.450003 -13.402855 69.810390 29 24 19
-692.581081 -0.221408 -173.552835 29 24 19
-654.422235 9.295138 129.554665 27 26 23
-654.422235 9.295138 129.554665 27 26 23
-654.310226 2.563696 118.176496 24 22 16
-655.847836 -9.407642 98.456514 64 61 58
-650.760651 5.755713 136.115599 33 34 26
-650.760651 5.755713 136.115599 33 34 26
-654.751825 -6.944282 105.965781 92 88 81
-646.496534 18.391250 168.255258 47 45 46
-646.496534 18.391250 168.255258 47 45 46
-656.246281 -14.076631 94.318122 115 112 102
-647.792292 15.084600 157.892931 40 41 38
-647.792292 15.084600 157.892931 40 41 38
-654.126263 -4.734489 110.037220 26 24 24
-644.959068 24.526113 177.781260 97 104 100
-651.281500 -2.065064 125.266159 22 20 20
-655.084753 -13.059361 97.184068 30 24 22
-655.084753 -13.059361 97.184068 30 24 22
-654.050589 -16.992529 98.178405 113 108 98
-654.050589 -16.992529 98.178405 113 108 98
-652.151060 -10.543527 111.392462 81 80 77
-652.151060 -10.543527 111.392462 81 80 77
-651.768064 -9.261521 114.106452 64 62 56
-651.768064 -9.261521 114.106452 64 62 56
-642.503166 17.594683 179.606569 96 92 85
-642.503166 17.594683 179.606569 96 92 85
-646.061373 7.932951 153.835678 89 88 85
-646.061373 7.932951 153.835678 89 88 85
-647.157478 3.907668 145.513630 89 80 67
-644.844961 4.699676 154.762626 28 26 20
-641.403961 14.247233 178.985560 25 25 19
-641.403961 14.247233 178.985560 25 25 19
-645.348167 2.945296 151.001692 28 23 18
-647.351837 -2.771034 136.781180 25 24 21
-647.351837 -2.771034 136.781180 25 24 21
-648.598766 -12.826711 122.942221 102 96 94
-645.497322 -3.531962 143.196774 36 37 29
-650.173473 -18.621629 110.798526 45 41 34
-644.589281 -0.492508 149.489594 33 34 31
-644.589281 -0.492508 149.489594 33 34 31
-643.285227 -4.796428 150.341368 24 22 16
-646.152449 -17.959198 125.291109 95 89 82
-639.435291 -0.306629 168.804860 45 47 36
-639.435291 -0.306629 168.804860 45 47 36
-661.872482 -13.398221 25.479394 45 41 34
-642.890596 -16.719018 138.627899 28 24 24
-641.357994 -19.858235 142.753088 94 93 85
-640.826654 -18.054853 145.847321 67 63 56
-638.060093 -10.937311 162.267041 79 75 68
-638.060093 -10.937311 162.267041 79 75 68
-639.624214 -19.417894 146.414864 29 23 21
-636.266804 -20.946856 160.643983 121 110 104
-631.730795 -10.330817 187.764418 82 76 69
-627.113199 2.012340 215.944624 113 107 100
-631.916714 -11.872729 185.496461 86 94 87
-623.134327 10.936655 238.739824 56 46 44
-623.134327 10.936655 238.739824 56 46 44
-621.940994 13.677472 245.869184 112 103 98
-621.940994 13.677472 245.869184 112 103 98
-629.863119 -12.552090 190.854573 26 24 18
-628.214025 -11.066014 200.183058 27 25 19
-623.215342 -7.283044 223.340392 42 40 28
-619.404268 0.890972 245.639348 86 85 77
-619.404268 0.890972 245.639348 86 85 77
-622.574282 -19.992667 212.262130 112 117 113
-622.369194 -21.095198 213.101625 120 120 109
-607.529259 2.381655 288.325763 25 26 18
-643.236399 9.652025 81.215739 28 28 22
-592.390203 13.527188 358.725190 28 28 22
-580.060434 32.579595 417.051649 154 149 139
-592.444801 2.260654 349.025536 36 32 32
-592.980003 -5.456042 344.343591 28 27 19
-579.907465 28.597489 415.450811 151 152 139
-588.445759 11.188923 368.626237 117 113 106
-607.831860 -29.123536 263.541102 119 117 111
-591.535807 1.032757 350.810552 155 149 137
-583.940363 21.613209 391.916323 138 137 134
-579.902649 19.473520 411.664581 119 114 104
-576.599360 27.058193 427.652311 126 125 122
-599.095058 -19.462162 305.997920 33 29 35
-602.269459 -28.146774 286.167765 160 147 132
-582.006931 3.605379 391.505742 118 115 105
-578.907919 9.435858 407.404661 121 119 113
-732.025528 -20.732996 252.256632 26 52 33
-722.438526 -11.744979 122.410822 21 50 28
-765.426493 -59.964889 730.080509 122 133 125
-784.381247 -80.394226 997.768307 19 44 21
-819.636536 -286.422229 1523.910522 26 33 49
-745.684958 -35.549477 467.699718 32 44 46
-745.684958 -35.549477 467.699718 32 44 46
-743.318319 -36.959875 461.927176 20 90 141
-728.695917 -22.314832 255.815935 28 92 135
-728.695917 -22.314832 255.815935 28 92 135
-672.954750 -54.612046 592.875004 145 144 141
-704.882479 7.038914 -315.582299 168 161 151
-443.941593 96.199644 2476.087952 119 124 120
-443.941593 96.199644 2476.087952 119 124 120
-476.433563 83.303571 2117.835426 119 124 120
-476.433563 83.303571 2117.835426 119 124 120
-630.065680 -27.792966 396.518278 19 17 23
-620.052481 3.522450 482.109737 121 117 110
-697.723055 1.463184 -263.478708 43 41 41
-642.909765 -22.365850 192.386639 21 18 22
-632.050610 9.579956 272.410154 20 20 20
-632.050610 9.579956 272.410154 20 20 20
-640.344429 -7.190069 189.602816 15 19 19
-640.344429 -7.190069 189.602816 15 19 19
-638.324118 -1.724145 204.435444 18 18 18
-630.795956 17.635643 258.565068 23 23 23
-644.030285 -19.897605 156.310284 82 75 76
-644.030285 -19.897605 156.310284 82 75 76
-640.103912 -4.092864 182.373989 47 42 37
-695.527887 1.624078 -244.902158 98 101 93
-626.396894 30.298385 280.445981 87 85 79
-633.746529 10.610444 224.857163 77 75 69
-644.603586 -17.878255 134.392321 70 79 77
-644.634438 -15.977561 133.904696 35 34 31
-644.634438 -15.977561 133.904696 35 34 31
-639.055824 1.428847 146.954405 19 19 19
-642.514896 -9.720280 117.624676 42 37 32
-642.609119 -9.995832 110.579038 20 18 19
-644.067764 -15.006380 94.981927 88 84 77
-644.067764 -15.006380 94.981927 88 84 77
-638.311577 2.844503 129.602289 44 50 43
-686.077023 -2.312491 -168.099439 20 18 18
-643.196297 -16.984628 78.521270 17 17 17
-675.387478 5.948655 -123.318517 22 23 20
-641.738558 -15.680429 74.736965 151 142 129
-638.542604 -1.718030 92.435354 19 20 17
-684.890795 1.179499 -181.457353 137 138 130
-640.626764 -13.815941 75.988936 81 77 78
-633.836174 14.558926 109.833241 142 142 131
-688.063955 4.311915 -186.669064 119 124 120
-688.063955 4.311915 -186.669064 119 124 120
-688.091707 4.297492 -186.913335 119 124 120
-687.448311 4.810696 -182.451630 119 124 120
-686.339426 -7.050707 -179.732358 42 67 91
-878.662205 -300.758672 2262.864685 30 59 58
-732.462168 -20.976327 258.044219 9 41 17
-732.462168 -20.976327 258.044219 9 41 17
-764.087200 -49.564192 733.075428 29 42 41
-744.942617 -38.375548 487.124157 19 90 137
-739.288759 -30.391648 419.902372 26 88 136
-739.288759 -30.391648 419.902372 26 88 136
-707.160473 -4.203798 -69.694531 25 44 53
-707.160473 -4.203798 -69.694531 25 44 53
-751.623058 -56.119150 646.970844 28 43 30
-695.456982 2.275253 -251.900530 43 76 103
-670.848036 17.709184 5.063940 156 161 164
-693.112087 3.029372 -239.396596 153 147 145
-693.722963 3.213229 -244.486713 153 147 145
-690.365839 6.663331 -206.975865 142 146 146
-694.593430 2.744299 -251.589108 58 62 61
-656.497955 12.230267 119.993234 57 57 57
-694.455767 3.156606 -250.833011 14 20 20
-695.437193 3.183839 -260.099721 20 22 27
-696.302843 3.243512 -268.455720 20 23 26
-755.990505 14.341578 -781.791687 50 54 54
-692.779732 3.117625 -241.124845 114 115 112
-699.984264 7.711526 -297.462082 156 154 148
-716.500092 12.228386 -402.286196 125 124 121
-717.135763 7.299370 -404.832268 121 118 122
-717.135763 7.299370 -404.832268 121 118 122
-717.868471 -0.402697 -406.792164 114 115 112
-716.828108 -0.841767 -399.867105 114 115 112
-710.402966 -0.125796 -357.658720 114 115 112
-718.431520 -4.467843 -409.148645 94 94 94
-718.431520 -4.467843 -409.148645 94 94 94
-694.694805 2.668049 -255.152440 78 75 72
-723.509836 0.116733 -423.999739 157 154 151
-734.392118 5.957800 -480.139542 155 150 145
-733.962011 4.400988 -477.450705 157 151 144
-733.880377 0.940009 -475.538206 157 156 148
-737.375736 -1.166630 -493.097925 155 152 149
-745.047712 0.571373 -531.735516 128 125 122
-740.577030 -7.553720 -504.812908 97 98 95
-744.919586 -11.351173 -527.687311 73 74 71
-818.471813 26.498494 -909.349155 156 154 148
-768.249655 -24.922310 -624.192238 51 47 48
-697.813511 1.996110 -273.031759 159 160 152
-695.183372 3.445641 -265.595794 134 139 135
-695.196342 3.421256 -265.195656 134 139 135
-704.740477 8.113204 -130.427122 130 144 152
-846.679020 -257.537341 1792.549706 64 69 72
-846.679020 -257.537341 1792.549706 64 69 72
-882.349586 -434.191418 2325.667191 121 99 126
-695.029020 3.305336 -260.709739 16 45 18
-666.498184 21.676184 -656.218433 16 45 18
-674.499035 40.092620 -552.811241 28 45 39
-787.007046 -246.264124 1060.030651 30 42 76
-848.315144 -113.773286 1944.962502 29 42 41
-862.735176 -308.287334 2255.133057 76 76 70
-753.421211 -48.913673 614.706039 6 39 53
-721.112490 -13.911502 137.883151 24 91 140
-784.364891 -64.656359 1114.114666 26 89 134
-784.364891 -64.656359 1114.114666 26 89 134
-762.824345 -37.911609 810.583973 26 42 40
-696.212626 3.346366 -241.792297 82 89 93
-705.705881 11.265341 -30.637577 109 113 113
-693.324518 -3.073668 -168.068790 146 146 140
-692.549515 4.825200 -216.536212 160 166 166
-695.272446 2.808874 -248.298192 29 32 35
-688.977528 2.718851 -188.090765 86 95 94
-688.977528 2.718851 -188.090765 86 95 94
-695.620251 2.903843 -252.237844 26 41 47
-699.151754 1.969756 -276.893687 93 97 96
-699.149561 1.914184 -276.874685 33 41 43
-699.038935 3.513742 -274.308801 151 146 141
-698.923731 3.093672 -271.700954 153 149 142
-700.346851 3.076457 -280.351925 153 149 142
-701.360607 4.873477 -286.200094 26 25 22
-700.388670 3.737018 -280.407691 155 149 142
-700.203753 2.063361 -279.296875 156 152 145
-701.071453 3.072121 -283.669090 74 77 69
-700.821638 2.307143 -282.182908 62 63 60
-701.134491 3.245927 -283.870792 140 139 131
-701.134491 3.245927 -283.870792 140 139 131
-701.281786 2.302710 -284.515047 84 76 69
-701.275682 2.038138 -284.340382 74 83 81
-701.275682 2.038138 -284.340382 74 83 81
-701.311111 1.049205 -284.209323 97 98 95
-701.924944 3.465324 -287.524581 140 138 132
-701.924944 3.465324 -287.524581 140 138 132
-702.982092 3.964917 -292.445183 99 104 100
-703.214598 2.409344 -293.225765 41 45 45
-703.933811 1.848229 -296.716547 157 155 149
-704.734707 4.646133 -300.737143 154 152 146
-704.734707 4.646133 -300.737143 154 152 146
-695.863962 2.829703 -252.816010 30 30 31
-707.118273 1.331348 -309.402251 41 41 35
-707.118273 1.331348 -309.402251 41 41 35
-707.118273 1.331348 -309.402251 41 41 35
-637.201452 160.427260 -1020.026970 134 138 143
-637.201452 160.427260 -1020.026970 134 138 143
-718.075228 18.120907 40.961945 108 115 126
-684.855843 30.621937 -396.156669 67 48 59
-726.743460 -17.142594 179.117966 15 39 18
-746.411610 -44.587952 462.666988 15 42 20
-784.222794 -80.214459 998.263645 15 42 20
-728.936958 -22.502361 227.118158 32 43 42
-708.357048 11.127435 -63.296103 122 136 144
-734.643888 -32.033694 333.286572 9 36 53
-721.832514 -16.970927 150.958693 28 88 129
-706.970644 11.054925 -77.816254 127 143 155
-708.378744 12.101118 -55.568606 127 143 155
-686.069727 5.788229 -404.177475 32 64 94
-737.549782 -87.986070 583.704376 42 58 55
-691.918945 0.258144 -213.404202 31 29 23
-694.584751 2.407378 -239.796877 20 16 16
-692.537594 0.817153 -220.281219 31 29 23
-695.305586 2.608886 -246.100163 20 16 16
-699.507570 3.511425 -276.818323 145 139 132
-699.663401 0.910884 -277.503538 114 114 108
-699.850035 1.969409 -277.987981 146 140 133
-700.116301 2.576587 -279.113889 88 84 77
-700.079489 3.480687 -278.761959 149 141 134
-700.079489 3.480687 -278.761959 149 141 134
-700.223017 3.208854 -279.181576 137 135 123
-700.331259 2.957186 -279.689002 91 84 79
-700.279474 3.537813 -279.337835 74 65 66
-700.277090 2.804492 -279.232550 145 142 132
-700.555897 3.587241 -280.157399 54 50 43
-700.709391 2.109615 -280.938864 80 74 67
-700.863171 1.135552 -281.516814 84 89 85
-700.903177 3.412070 -281.516576 141 138 128
-700.995302 3.437010 -281.830835 145 140 130
-701.126003 2.947945 -282.341766 139 135 128
-701.516247 2.845536 -283.818960 123 120 110
-702.493000 5.541725 -287.537980 155 148 138
-702.717876 -0.146146 -287.868476 148 146 140
-702.626610 -0.107562 -287.329936 148 146 140
-696.946812 2.688988 -257.408595 104 113 112
-703.370714 2.192250 -290.857887 136 136 136
-703.370714 2.192250 -290.857887 136 136 136
-703.236246 1.567358 -289.918756 137 135 129
-706.492090 4.146887 -300.392127 145 145 139
-702.390623 0.957328 -281.133676 173 173 174
-696.591234 2.902490 -253.665686 20 16 16
-712.596321 13.169715 -24.795388 92 101 112
-781.081820 -156.212246 929.950809 6 57 91
-729.220724 -24.422953 213.192058 5 35 11
-729.234028 -28.348851 219.410992 18 43 13
-726.029825 -20.247398 184.939277 30 43 41
-835.208130 -256.417108 1838.620567 77 82 78
-724.120903 -20.750593 174.118197 20 89 138
-723.020697 -17.859441 169.464374 25 88 133
-690.456724 15.454851 -379.836988 136 141 137
-696.117830 2.678110 -247.460556 148 147 139
-699.468660 3.831266 -293.201447 135 135 135
-699.961185 2.008633 -284.025240 26 28 22
-699.961185 2.008633 -284.025240 26 28 22
-699.961185 2.008633 -284.025240 26 28 22
-699.745464 3.800217 -279.652309 130 129 121
-696.236038 2.873194 -248.696399 94 90 83
-700.228548 3.659594 -281.264567 83 78 68
-701.698446 6.685935 -290.510845 156 152 145
-700.482845 1.096409 -280.600262 143 138 133
-700.368214 3.245425 -279.538178 138 133 123
-700.516844 1.281190 -280.133295 133 131 125
-695.584106 2.394988 -246.465206 147 147 141
-700.458145 2.384661 -279.428983 72 83 75
-700.345850 3.412269 -278.603578 61 66 62
-700.544167 2.303072 -279.662704 107 113 106
-700.608921 1.200453 -279.833746 51 47 47
-700.432253 3.318430 -278.074789 139 132 122
-700.475073 3.046431 -278.198314 146 138 131
-700.475073 3.046431 -278.198314 146 138 131
-700.507593 2.941461 -278.366613 133 127 120
-700.502443 2.858588 -278.310251 136 134 128
-700.597286 2.468281 -278.397799 76 76 70
-698.338985 2.907443 -263.528562 138 133 123
-697.380495 2.664318 -257.063460 109 115 114
-697.419357 2.654293 -257.347512 113 117 116
-831.963348 -311.335278 1607.153130 121 94 120
-735.205555 -29.356346 298.014927 24 55 28
-814.641571 -237.059140 1399.350739 34 97 136
-776.473999 -159.412491 866.121292 34 97 136
-720.213366 -15.652376 98.728466 34 45 44
-712.156916 -10.439246 -10.619818 20 90 134
-675.717115 16.972582 -578.419876 20 89 138
-708.500576 -6.447528 -61.333859 28 91 136
-653.037310 111.205065 -931.341743 31 34 55
-708.481121 -4.615433 -55.581558 26 45 47
-708.481121 -4.615433 -55.581558 26 45 47
-708.960152 -12.975211 6.565484 138 137 134
-698.036242 5.651572 -203.118253 159 169 171
-703.479099 8.021529 -323.719621 144 143 135
-700.801706 1.763888 -292.783237 26 29 21
-701.682281 1.208371 -300.162458 108 113 109
-700.871611 -0.246717 -288.157225 133 131 131
-700.871611 -0.246717 -288.157225 133 131 131
-700.698805 -0.111342 -286.484766 133 131 131
-700.698805 -0.111342 -286.484766 133 131 131
-696.530437 2.823287 -247.577095 90 90 91
-700.305367 2.219045 -279.780650 139 137 131
-700.744820 5.583714 -282.809401 154 148 141
-700.125265 1.593107 -277.149868 134 132 126
-700.183201 1.326318 -277.426076 135 134 131
-700.057030 3.844732 -276.594496 132 127 122
-700.297165 2.321291 -278.136301 102 104 98
-700.572538 0.526138 -279.988170 143 138 133
-699.969769 1.206363 -274.999309 90 90 91
-700.096369 3.330106 -276.268673 128 125 122
-700.148106 1.354884 -276.317072 41 47 47
-700.151253 3.024363 -275.781894 131 127 120
-700.076056 2.921904 -275.150537 128 126 120
-700.069904 2.970739 -274.793243 77 82 85
-700.069904 2.970739 -274.793243 77 82 85
-700.069904 2.970739 -274.793243 77 82 85
-700.058603 2.847459 -274.147153 124 120 108
-700.022793 3.704681 -273.482919 136 132 125
-700.022793 3.704681 -273.482919 136 132 125
-700.147057 2.283102 -274.075985 142 137 132
-700.563097 1.484005 -272.222853 44 43 35
-692.686987 1.059303 -225.428486 38 37 34
-693.065977 1.650044 -229.307771 151 149 143
-691.149759 3.709199 -219.804597 129 127 121
-691.080093 4.277658 -219.725776 166 172 172
-691.678476 4.176057 -224.580216 170 176 176
-696.644163 2.846913 -249.564576 133 139 138
-678.562832 50.806534 -482.849693 142 139 148
-692.967653 10.149693 -297.994542 95 79 121
-683.751631 32.917511 -425.755215 132 113 137
-694.033241 8.884197 -284.882259 44 34 64
-692.174244 14.644407 -310.504007 133 138 149
-702.232361 -1.515005 -166.454315 32 45 43
-696.367502 3.603563 -253.013825 19 99 141
-741.027308 -82.273835 408.624315 0 57 92
-702.105284 -1.803876 -164.965856 18 92 140
-696.678162 2.898267 -248.502302 21 96 139
-703.278542 -2.325708 -143.865478 28 91 136
-753.876495 -132.083499 632.616806 50 104 135
-713.289881 -36.279017 7.450125 50 104 135
-698.612118 -1.500324 -217.856765 19 95 136
-704.846525 -15.007174 -116.637897 19 33 57
-704.846525 -15.007174 -116.637897 19 33 57
-704.031086 -5.067531 -127.510893 25 45 31
-692.914248 12.496003 -311.133361 87 85 116
-710.429049 -29.210892 35.898283 144 144 144
-696.703768 2.726672 -247.183156 153 146 141
-696.711159 2.805988 -247.634172 153 146 141
-698.775244 1.637130 -270.095539 157 165 167
-700.182199 4.035379 -283.886862 116 116 117
-697.715712 2.936294 -257.495570 81 79 79
-699.404383 4.271682 -272.217917 16 20 20
-696.746492 2.814968 -248.037577 153 146 141
-696.843004 2.867356 -248.902607 153 146 141
-697.409964 2.371407 -253.128862 123 123 123
-697.406006 2.373243 -253.087473 123 123 123
-696.552086 2.860484 -246.788573 135 137 131
-696.785975 2.799551 -248.329544 121 123 117
-699.348021 3.023440 -264.723086 40 38 26
-699.641609 3.484606 -266.209435 169 164 154
-699.466705 3.066630 -264.926505 175 171 157
-700.583696 2.601193 -270.958710 112 87 42
-694.115114 2.970101 -234.600616 142 143 140
-694.115114 2.970101 -234.600616 142 143 140
-693.957043 3.199599 -233.878374 135 137 131
-696.890116 2.810974 -248.965740 121 123 117
-693.755341 2.984264 -232.818246 142 143 140
-693.755341 2.984264 -232.818246 142 143 140
-693.927240 3.465426 -233.852053 168 172 171
-696.866989 2.897733 -248.730922 153 146 141
-728.727818 25.948140 193.074620 116 121 130
-716.427898 -31.191966 20.045964 71 71 71
-716.427898 -31.191966 20.045964 71 71 71
-705.055618 -13.467689 -134.524763 23 28 65
-707.679796 -15.964550 -97.166711 29 42 40
-702.068758 -9.545251 -174.692845 123 99 126
-702.821302 -10.936408 -163.950062 44 31 59
-735.008574 -27.168760 318.726254 32 45 43
-701.671505 -9.353766 -177.015233 35 37 68
-701.671505 -9.353766 -177.015233 35 37 68
-698.695087 -0.851606 -218.301439 78 82 81
-713.541412 -11.598349 11.579683 23 93 137
-695.689964 3.087757 -264.705992 34 64 92
-701.011896 -8.728818 -182.451868 12 31 59
-714.685774 -11.265083 37.640259 27 91 139
-714.685774 -11.265083 37.640259 27 91 139
-706.986761 -17.037442 -86.126775 79 88 87
-706.986761 -17.037442 -86.126775 79 88 87
-701.056099 -7.873352 -177.945518 30 37 62
-702.738380 -11.208034 -123.614788 144 146 140
-696.395111 2.840019 -243.557239 15 20 23
-697.414303 2.265953 -254.150510 61 63 68
-696.749640 2.777060 -247.562504 2 63 95
-697.196198 2.728068 -251.576471 66 73 77
-695.665979 1.909324 -239.946127 170 164 157
-697.439432 2.604736 -251.955867 89 52 2
-697.749901 3.077501 -254.017138 169 165 153
-697.749901 3.077501 -254.017138 169 165 153
-697.730589 3.028989 -253.877449 173 168 158
-697.660160 2.715657 -253.388381 112 85 38
-697.558641 2.736005 -252.724648 114 87 40
-697.741079 3.001817 -253.928566 180 170 161
-697.558260 2.763091 -252.710056 100 75 28
-697.558260 2.763091 -252.710056 100 75 28
-697.485018 2.708995 -252.223516 111 77 38
-697.709799 2.935207 -253.701997 164 158 144
-697.709799 2.935207 -253.701997 164 158 144
-697.699594 2.879659 -253.611422 172 166 152
-697.699594 2.879659 -253.611422 172 166 152
-697.453308 2.633346 -251.990914 96 52 42
-697.656727 2.795711 -253.320289 172 163 131
-697.900629 3.105796 -254.903126 34 35 43
-697.900629 3.105796 -254.903126 34 35 43
-697.602797 2.748032 -252.934599 193 176 139
-697.642326 2.762243 -253.178430 115 95 49
-697.642326 2.762243 -253.178430 115 95 49
-697.937584 2.992649 -255.092812 40 33 28
-697.976685 3.080359 -255.334473 42 35 36
-697.580528 2.694324 -252.762842 185 166 143
-698.019361 3.124603 -255.587387 166 160 153
-698.019361 3.124603 -255.587387 166 160 153
-697.841740 2.945349 -254.425812 172 166 154
-697.676229 2.788930 -253.354526 131 117 61
-697.676229 2.788930 -253.354526 131 117 61
-697.585487 2.654407 -252.761889 176 159 138
-697.962284 3.120731 -255.174756 142 140 140
-697.962284 3.120731 -255.174756 142 140 140
-697.971296 3.051057 -255.221558 163 161 149
-697.658539 2.865863 -253.227139 64 53 42
-697.658539 2.865863 -253.227139 64 53 42
-697.664356 2.731404 -253.243399 128 112 68
-697.664356 2.731404 -253.243399 128 112 68
-697.803593 2.697803 -254.106784 125 101 52
-697.888279 2.932838 -254.640603 53 42 44
-697.888279 2.932838 -254.640603 53 42 44
-697.938681 2.941110 -254.944491 51 39 44
-697.738266 2.747989 -253.629851 169 162 139
-697.332096 2.760058 -251.076722 165 154 122
-697.538519 2.645953 -252.367306 99 57 42
-697.652388 2.681816 -253.072619 97 71 51
-698.495579 3.287982 -258.330297 170 164 150
-697.956038 2.772487 -254.935527 125 107 47
-697.737217 2.791640 -253.550243 127 114 55
-698.204136 2.464815 -256.380010 83 50 41
-698.194027 2.975227 -256.355190 156 149 139
-698.175192 2.900550 -256.207514 169 165 151
-696.520472 2.789347 -246.025324 167 158 145
-696.520472 2.789347 -246.025324 167 158 145
-697.784233 2.683969 -253.734064 167 158 140
-697.385073 2.614848 -251.288962 70 41 40
-697.775078 2.639039 -253.639698 171 158 143
-697.775078 2.639039 -253.639698 171 158 143
-697.484350 2.604385 -251.845717 167 158 145
-698.453093 2.823216 -257.163048 113 97 39
-702.216578 4.500643 -277.823424 41 34 29
-699.168015 3.555471 -260.773873 159 153 141
-697.079182 2.885394 -249.233699 85 71 67
-695.814800 2.453005 -242.295051 162 154 147
-696.605253 2.710077 -246.630073 112 106 99
-695.796824 2.422106 -242.274427 30 24 22
-696.836805 2.788622 -247.891378 33 30 27
-695.179415 2.144752 -239.455700 155 151 139
-694.178009 2.915104 -234.875464 142 143 140
-694.247675 2.804008 -235.613251 147 148 145
-693.491650 3.587854 -232.183838 173 177 176
-703.422689 -13.179080 -160.238266 90 45 58
-706.871080 -14.703234 -109.925687 69 73 73
-706.871080 -14.703234 -109.925687 69 73 73
-704.955959 -11.301325 -134.607506 30 39 37
-703.728914 -13.383184 -151.998818 124 100 127
-703.671074 -12.854686 -152.232230 43 32 53
-705.423403 -13.475913 -126.880157 4 61 96
-705.423403 -13.475913 -126.880157 4 61 96
-703.422213 -11.826155 -154.285550 65 99 129
-703.422213 -11.826155 -154.285550 65 99 129
-704.072237 -4.262893 -141.560471 20 46 27
-703.627205 -15.677223 -150.139940 36 49 89
-705.369377 -3.995187 -119.963849 33 46 45
-703.570366 -14.029200 -149.786747 37 36 64
-703.570366 -14.029200 -149.786747 37 36 64
-705.704975 -5.791920 -113.169777 53 95 116
-705.704975 -5.791920 -113.169777 53 95 116
-702.803183 -13.942376 -159.665477 131 136 157
-702.957678 -8.832344 -153.876936 78 84 84
-705.432796 -4.671997 -113.639283 27 96 145
-700.916386 -5.307493 -182.786465 35 44 48
-702.966499 -14.007913 -152.522743 9 30 59
-704.725742 -3.486194 -120.726919 21 90 137
-703.932858 -11.133998 -134.229147 82 88 87
-695.075560 3.275696 -274.882412 35 68 95
-702.843332 -4.470858 -123.944676 24 30 30
-702.843332 -4.470858 -123.944676 24 30 30
-697.330379 2.390073 -252.162528 30 28 22
-697.586632 2.595969 -252.956653 156 124 112
-697.586632 2.595969 -252.956653 156 124 112
-697.577620 2.579064 -252.893305 148 124 109
-697.700453 2.937732 -253.718591 40 32 25
-697.616291 2.611623 -253.045177 90 57 34
-697.704363 2.925904 -253.670645 147 140 130
-697.700262 2.869100 -253.618169 168 159 141
-697.678804 2.731850 -253.429008 169 157 135
-697.648144 2.748318 -253.208232 106 84 38
-697.759533 2.980820 -253.957129 42 35 37
-697.759533 2.980820 -253.957129 42 35 37
-697.644758 2.629007 -253.139162 178 159 138
-697.627831 2.535297 -253.006625 177 157 143
-697.718763 2.776184 -253.623843 125 109 65
-697.748375 2.885004 -253.807712 159 153 141
-697.805595 3.056968 -254.200578 163 154 143
-697.811556 3.082585 -254.231668 159 154 144
-696.745062 2.754548 -247.084522 39 30 32
-697.662067 2.575071 -253.167963 99 61 43
-698.711252 2.381003 -259.882379 87 47 46
-697.660303 2.572246 -253.155565 92 52 39
-697.660303 2.572246 -253.155565 92 52 39
-696.745014 2.754691 -247.085309 42 35 37
-696.745014 2.754691 -247.085309 42 35 37
-697.771263 2.904975 -253.888965 55 42 36
-697.771263 2.904975 -253.888965 55 42 36
-697.751474 2.786712 -253.713346 173 160 125
-697.400808 2.899307 -251.483226 39 30 32
-697.849512 2.956504 -254.351926 39 31 24
-697.708416 2.658916 -253.411722 102 72 48
-697.708845 2.632965 -253.402758 104 87 72
-697.708845 2.632965 -253.402758 104 87 72
-697.849607 2.995599 -254.321599 51 40 42
-697.849607 2.995599 -254.321599 51 40 42
-697.695303 2.526658 -253.258848 159 153 141
-697.769642 2.716726 -253.706956 105 91 47
-697.728443 2.545455 -253.416181 84 49 42
-697.886229 3.017596 -254.458165 163 154 141
-697.864008 2.915380 -254.288363 159 149 140
-697.747278 2.575459 -253.501368 87 47 46
-697.741270 2.578327 -253.463840 87 47 46
-697.750044 2.575905 -253.519130 87 47 46
-697.714853 2.513002 -253.278923 66 38 35
-697.853374 2.790846 -254.143143 175 163 125
-697.795248 2.616549 -253.736782 163 156 138
-698.356485 3.485384 -256.871700 39 35 28
-697.976923 2.879797 -254.513931 30 27 17
-698.579073 3.028161 -257.233787 30 26 19
-700.334740 4.135683 -265.364099 173 167 160
