ply
        format ascii 1.0
        element vertex 2246
        property float x
        property float y
        property float z
        property uchar blue
        property uchar green
        property uchar red
        end_header
2967.661095 -1407.548618 3254.543304 12 17 26
2571.812248 -481.896210 2996.912193 89 97 104
2855.384254 -1018.096638 3198.426056 135 145 152
2764.845276 -672.040510 3164.476204 10 22 24
2420.571136 -1962.005806 2482.166672 110 96 97
2809.920120 -637.454319 3152.733803 153 160 163
3703.373718 -2172.322464 3797.339249 103 97 108
2588.313293 -220.872355 2976.539421 31 30 40
3243.446350 -1384.153080 3436.439133 43 48 57
2480.607796 113.726628 2911.727524 40 49 58
2488.274574 95.506024 2911.206436 215 227 237
3269.299698 -1315.074539 3438.983536 41 43 43
2609.056282 80.322254 3012.576485 51 63 73
2515.501785 156.228507 2928.540230 108 113 122
2539.811516 107.017553 2942.212677 196 206 216
2539.811516 107.017553 2942.212677 196 206 216
2539.811516 107.017553 2942.212677 196 206 216
2075.924110 222.810960 2460.890198 73 74 84
2770.897484 180.366170 3132.347870 30 31 41
2811.828041 125.572109 3124.384689 94 101 110
4070.196152 -1149.891758 4126.050568 17 20 25
2860.180664 127.117884 3114.673042 95 96 106
-2255.519485 304.133010 2352.487755 154 153 155
-1469.077778 316.092944 1547.554302 136 141 140
-1421.419811 320.222402 1498.395061 61 45 46
-1565.988922 315.771723 1654.516983 113 118 119
-1444.341755 320.204258 1532.108974 255 253 254
-3205.782318 248.637390 3389.892578 61 60 62
-1409.261799 314.009738 1512.862587 118 120 121
-3589.445496 307.387567 3851.073456 64 66 67
-4492.558670 -217.702174 4750.222778 61 60 64
-1417.847538 328.318882 1534.228230 169 171 172
-4023.540115 -1245.095730 4159.937668 34 23 25
-3763.847733 -677.774334 3969.632339 75 71 77
-3763.847733 -677.774334 3969.632339 75 71 77
-1487.178802 316.034269 1633.417892 126 138 138
-5175.268555 -1109.930897 5542.084503 11 4 11
-5075.459671 -1011.606216 5445.189285 15 11 17
-5075.459671 -1011.606216 5445.189285 15 11 17
-1805.474472 248.226523 2074.091339 137 139 140
-1904.115295 307.729650 2227.620316 111 112 110
-2017.834473 358.186221 2380.861473 245 246 244
-4574.471664 -2046.902466 5132.006073 32 12 17
-4433.405304 -206.655025 5288.604736 70 65 66
-1316.127396 340.685368 1574.543858 38 24 28
-4588.207626 -1359.763432 5364.661407 39 19 24
-1178.716183 335.403180 1410.081387 41 28 30
-2656.161690 -201.191497 3170.691299 69 64 66
-1787.720871 304.233718 2157.843018 113 115 115
-3004.752731 323.308444 3684.045410 153 148 150
-1209.079361 334.573102 1460.386467 169 162 169
-3521.390533 -593.335676 4217.196655 78 71 76
-3521.390533 -593.335676 4217.196655 78 71 76
-2166.090393 285.295081 2640.496254 162 161 163
-3853.983307 -778.709555 4620.044708 84 77 82
-3398.794174 -765.682936 4064.234161 97 87 93
-3398.794174 -765.682936 4064.234161 97 87 93
-3076.801491 -511.629581 3697.044373 85 81 87
-3506.725693 -899.061012 4190.323257 96 82 88
-3506.725693 -899.061012 4190.323257 96 82 88
-3948.710632 -1219.104385 4707.927704 51 31 30
-3936.673737 -1246.427536 4719.306946 113 94 97
-3805.965042 -995.673561 4591.848755 29 18 28
-3332.833862 392.192411 4175.872040 162 161 163
-3332.833862 392.192411 4175.872040 162 161 163
-3587.690353 -736.843348 4358.517838 78 73 82
-3953.518677 -765.556431 4819.003677 73 68 77
-3565.216827 -769.594622 4331.496048 72 67 76
-2514.840317 247.878122 3135.272789 69 66 68
-3327.390289 -820.233440 4028.900146 86 80 91
-3533.850479 -911.673164 4285.560608 98 84 96
-4527.071381 -1826.250839 5496.142197 117 100 97
-2254.258728 285.641456 2851.527596 201 203 203
-2538.290024 310.167885 3220.523834 79 79 79
-1106.807804 345.381522 1414.172363 43 32 35
-2711.530304 280.941272 3580.820465 243 241 240
-1157.658863 341.577911 1494.853210 100 107 110
-4155.079269 -705.962467 5481.581497 77 72 74
-1348.652935 317.495966 1770.902252 119 123 118
-4239.129257 -1568.307972 5497.314453 29 9 14
-2598.936272 244.763923 3500.158310 118 123 124
-2361.427879 180.934227 3171.571732 252 247 248
-4309.218979 -506.512260 5860.224533 93 88 90
-2795.792961 144.661891 3861.718369 56 34 36
-3278.137970 184.740996 4559.109497 56 34 36
-2615.313530 148.544276 3615.375137 97 76 79
-2615.313530 148.544276 3615.375137 97 76 79
-1198.659611 339.041996 1620.729065 184 186 180
-4021.757889 -270.368290 5590.512466 17 12 13
-2437.218094 111.551440 3375.246048 109 87 89
-3220.152283 23.883985 4650.825119 33 15 16
-3591.300964 70.764089 5217.048645 100 82 83
-4346.410751 -3511.054993 5917.589188 191 145 67
-3928.452682 61.116230 5760.840607 102 84 85
-4088.576508 -3274.048615 5604.852676 255 216 144
-3734.635162 -3313.128281 5085.659409 210 164 76
-3734.635162 -3313.128281 5085.659409 210 164 76
-3033.095551 -17.591803 4474.501038 78 62 63
-3654.348755 -3330.466843 5040.446472 166 113 50
-3619.031906 -2141.955566 5160.342407 255 216 157
-3816.417694 -2894.408607 5711.742783 230 195 97
-878.632927 334.610462 1307.424736 143 152 162
-3437.173080 -4011.776352 5589.224625 255 216 125
-3716.533279 -3593.504715 6157.509613 251 213 117
-3637.458801 -2940.808678 6119.459152 248 216 133
-3855.676651 -3881.785965 6446.791077 255 215 126
-3605.044937 -3485.799026 6069.948196 255 226 157
-3733.386993 -3832.893753 6475.386810 213 169 76
-3592.113113 -2049.023628 6422.902679 228 193 113
-3222.743988 -2840.329170 5668.335342 114 92 81
-4002.767563 -2165.721321 7333.036041 94 58 34
-3452.363586 -3682.868195 6177.336502 255 231 128
-3854.357147 -2124.940872 7272.801971 234 198 144
-3253.096008 -3836.032486 5930.295563 244 202 105
-2960.853767 -3546.337509 5358.241272 126 74 28
-3270.880508 -1784.278488 6201.712799 199 174 80
-3232.911682 -4078.988266 5886.183167 243 196 142
-3232.911682 -4078.988266 5886.183167 243 196 142
-3149.228477 -3945.892715 5760.582352 175 127 69
-3267.177200 -3816.960907 6108.732605 245 202 121
-3851.215363 -1980.282784 7518.583679 93 64 37
-3621.436691 -205.069351 7348.200226 239 241 249
-3011.531639 -3631.972122 5721.059036 124 70 7
-3237.597275 -4020.053101 6197.233582 168 120 62
-3237.597275 -4020.053101 6197.233582 168 120 62
-3208.143997 -29.679656 6596.598053 125 129 140
-3176.169205 -3997.689819 6126.701355 241 194 133
-3352.067947 -96.735126 6913.024902 108 114 125
-688.881683 325.195432 1190.666199 34 27 34
-2877.936554 -3965.651321 5606.084442 247 202 135
-3621.199799 -1883.298683 7504.911804 89 95 100
-2338.813400 144.544983 4877.108383 48 30 31
-2821.253586 -4015.545654 5555.375671 233 193 144
-3667.831421 -1623.666382 7717.797852 154 159 160
-2187.982368 106.707048 4630.958557 65 53 53
-3024.622345 -4050.722885 6205.609131 201 154 86
-726.088572 335.026026 1328.211117 144 159 175
-2997.530365 -4085.427475 6259.011078 255 214 140
-2997.530365 -4085.427475 6259.011078 255 214 140
-3314.960861 -3776.558304 7014.210510 215 175 123
-3314.960861 -3776.558304 7014.210510 215 175 123
-2586.187553 -3992.636490 5369.665146 157 104 47
-2685.910416 -4044.292068 5701.726532 255 213 146
-2580.082321 2.785912 5831.737518 82 101 104
-2580.082321 2.785912 5831.737518 82 101 104
-3232.977676 -2702.021790 7303.357697 82 70 60
-3166.328812 -1352.697277 7306.921387 40 43 48
-1871.782112 165.415788 4265.319443 25 35 35
-1568.404484 -209.502006 3494.059753 68 70 71
-3030.668449 -3815.552521 6937.837982 144 100 59
-3030.668449 -3815.552521 6937.837982 144 100 59
-2573.073578 -4461.268234 5717.368698 238 193 112
-2597.024727 -1543.187523 6103.102875 101 102 106
-2637.601280 -3483.474350 6154.343414 129 82 38
-3245.035172 -1362.863255 7979.945374 107 111 116
-2429.728317 -4167.211533 5603.622437 243 193 140
-2425.560379 -4092.168427 5611.249924 241 190 110
-2435.876083 -4249.010086 5653.288651 144 99 48
-2267.207909 -3735.655212 5254.730225 253 202 122
-2762.359238 -4087.788773 6577.982330 225 182 155
-638.224983 330.514455 1268.682480 148 164 177
-3013.054848 -3655.908203 7526.081085 195 144 88
-2376.328278 -4110.655594 5807.383728 163 110 47
-1847.898483 32.767671 4712.067413 230 249 246
-1821.613312 95.617962 4652.980804 233 252 249
-1780.652046 -597.398186 4479.403687 131 142 146
-380.902886 -8.588235 393.935084 215 203 169
-1894.793701 66.527933 4975.951767 215 229 227
-2323.784256 -4221.743774 5895.359421 201 149 73
-2132.410812 -3970.573044 5630.420303 176 126 43
-2132.410812 -3970.573044 5630.420303 176 126 43
-2217.661476 -3372.089767 6012.392807 235 191 138
-2249.951553 -3373.762512 6198.746872 112 68 44
-2156.113243 -4000.914383 5927.462769 240 197 118
-2034.349823 -3498.274994 5781.858444 141 87 10
-2034.349823 -3498.274994 5781.858444 141 87 10
-2178.288841 -2247.937775 6391.680527 103 65 31
-2176.033974 -3791.591263 6320.770645 255 200 101
-1836.988831 -3718.363953 5293.483734 238 182 111
-1831.971931 -4038.022614 5318.333817 196 148 60
-2463.371277 -152.268171 7715.578461 16 32 31
-2357.245636 -297.601771 7443.023682 100 106 113
-2292.423058 -3111.616898 7045.683289 57 32 22
-1869.745064 -3958.435440 5595.842361 196 142 65
-2100.479126 -2917.438698 6546.770477 69 40 26
-2109.478951 -78.161561 6932.274628 0 8 8
-1698.489380 -3573.501968 5321.852875 168 120 54
-2271.825790 -13.727403 7674.834442 30 49 46
-2255.998802 -2205.029106 7496.935272 35 33 33
-2216.713524 -71.414125 7528.697205 171 178 181
-1756.511497 -3971.612167 5615.774155 238 190 118
-2238.143158 -2695.029831 7620.997620 243 198 83
-1808.467484 -3416.480637 6079.816818 162 119 70
-2035.866737 -64.237297 7271.972656 16 28 28
-1768.839073 -3411.367798 6499.198151 174 122 75
-1708.625984 -3498.151016 6357.895660 152 100 40
-1058.842659 117.890906 3658.316040 121 142 144
-585.758686 340.367222 1673.373413 65 79 98
-1034.378815 64.966404 3803.554153 117 157 145
-1015.866280 126.697850 3733.322525 46 58 64
-989.389420 166.825831 3712.699509 185 194 204
-1457.490540 -4201.713562 6125.959015 229 178 138
-1302.018833 -1662.994194 5495.519257 56 55 57
-446.211863 321.487546 1117.291927 45 44 53
-1736.053848 -178.014815 8308.148956 190 205 208
-1520.384026 -3842.093658 7115.184021 159 113 36
-1533.630276 -4063.655853 7321.488190 193 136 85
-959.060860 -3012.564278 4341.061401 90 66 36
-338.831568 -110.430908 585.716677 163 145 116
-926.733971 -3459.071732 4172.806168 136 117 96
-937.231636 -360.731912 4189.242554 117 128 136
-838.673019 202.691746 3632.150650 162 174 186
-793.907118 -3100.495148 4102.413559 33 37 48
-483.614826 326.390481 1726.646233 116 129 143
-656.492519 -2836.215019 3733.621979 212 210 216
-666.586304 -2435.563660 3804.911804 112 123 131
-622.938538 -1973.294640 3520.200729 117 128 142
-618.476248 -3075.269699 3650.170898 128 137 146
-626.022053 -1548.659325 3712.294769 70 79 88
-607.603979 -3660.531235 3864.661026 58 45 37
-601.067209 -3297.497177 3804.847336 169 174 177
-377.368522 -113.223410 656.311941 157 173 186
-560.022116 -3305.496979 3712.431717 255 253 254
-378.775549 -544.230413 1329.761791 20 20 14
-582.048988 -1107.226944 3689.604950 0 15 22
-535.492229 -3420.570755 3731.822205 176 169 160
-543.144464 -2418.255997 3657.957840 128 130 130
-417.246342 345.612884 1741.023445 115 127 137
-515.189075 -3010.456276 3631.831360 117 120 125
-505.319118 -3296.178436 3619.228363 251 248 244
-513.156128 -2882.335091 3693.113327 249 235 217
-457.662106 257.554412 2390.499306 11 26 45
-457.662106 257.554412 2390.499306 11 26 45
-546.451521 -566.204262 3716.586304 41 59 66
-493.447685 -2938.471985 3588.312149 172 167 168
-500.613594 -2023.780441 3490.084076 69 80 88
-485.969210 -2952.037621 3566.553497 40 34 39
-494.926023 -2446.669388 3560.565186 219 211 204
-504.795218 -2107.225990 3617.943954 69 80 88
-399.400878 338.594079 1720.904922 196 213 222
-390.614939 308.487701 1611.933517 203 222 230
-526.010752 -551.833630 3722.315979 210 231 239
-483.151340 -2045.072365 3527.642059 174 186 192
-488.318253 -1586.769295 3582.321930 184 181 176
-387.617922 340.698338 1716.967392 203 222 230
-489.717770 -618.514013 3709.894562 88 99 91
-467.248774 -882.106972 3437.223053 43 45 39
-450.092316 -187.505877 3569.774628 25 33 40
-405.238008 -2057.016182 3589.400482 218 190 160
-405.238008 -2057.016182 3589.400482 218 190 160
-407.855415 -1756.032944 3485.285950 242 227 211
-429.422903 -634.252644 3486.745071 68 66 66
-417.262220 -938.049412 3442.209244 46 47 45
-412.746572 -889.653587 3386.731339 26 27 25
-400.505066 -1038.172913 3377.530289 120 124 125
-343.476987 -3096.170807 3442.969131 121 120 122
-348.748684 -2762.277222 3386.522675 255 251 247
-350.839424 -2515.000725 3413.543701 248 244 233
-377.270246 261.768103 2460.487366 46 61 77
-346.918678 -2456.747246 3389.575958 115 126 124
-374.911880 273.158836 2468.763924 129 145 162
-350.166535 -2021.995354 3302.223969 56 66 73
-373.674321 -912.190437 3397.251892 40 38 38
-334.660912 -2068.652344 3330.701447 164 176 180
-297.981048 -3071.085548 3226.018906 154 173 176
-367.466426 -202.020907 3358.451080 12 27 36
-367.466426 -202.020907 3358.451080 12 27 36
-286.206460 -2949.790573 3198.339272 73 80 83
-309.437108 -1040.541553 3067.511749 13 34 42
-291.850400 -1609.024239 3272.241211 20 20 14
-262.089324 -2475.217628 3278.997803 120 132 138
-300.960159 -1127.059460 3425.970840 37 42 45
-271.840072 -2004.675865 3331.472778 235 213 195
-279.133081 -1602.041054 3297.067642 193 199 198
-360.304379 -72.920513 449.727964 231 187 110
-262.041855 -1738.532257 3223.912430 255 248 228
-212.231851 -2842.976189 3096.164894 22 18 23
-230.939364 -2126.404953 3119.482613 106 117 131
-214.525795 -2537.230682 3297.706985 125 142 145
-230.667448 -1600.701332 3166.536140 92 74 51
-242.783785 -1140.973568 3118.009186 100 117 136
-204.351521 -2147.912407 3111.563301 109 119 136
-205.531311 -1956.151199 3118.792534 214 203 173
-181.306040 -2652.098656 3141.829491 128 133 142
-214.329338 -1629.392433 3205.709076 207 198 178
-174.505651 -2843.005943 3055.475044 127 129 140
-210.550904 -1562.388802 3103.844261 170 174 162
-196.489727 -1918.550301 3122.953033 113 115 85
-171.928430 -1850.222206 3045.894814 128 136 136
-172.964859 -1872.507095 3038.381958 128 140 140
-163.115370 -2049.654388 3063.804245 129 139 149
-171.301448 -1818.656349 3043.661499 116 122 127
-166.169822 -1985.335732 3022.148705 130 140 157
-264.783525 351.944852 1780.991554 146 166 184
-170.621693 -1575.824356 3041.906166 115 117 111
-347.790241 48.178577 147.869587 140 151 165
-186.704683 295.653081 2210.977745 135 147 157
-89.934903 -1162.081337 2917.279816 170 184 202
-246.961951 314.903307 1116.143036 117 136 151
-35.224295 -2367.318726 2862.264252 153 166 182
-23.325381 -2535.704994 2899.263382 100 115 131
-53.720123 -1777.877617 2870.715141 100 114 132
-14.721769 -2319.824028 2847.830963 110 123 139
-14.721769 -2319.824028 2847.830963 110 123 139
-159.055936 298.522425 2201.624298 103 112 126
-154.834914 234.352660 2187.885475 19 31 35
-154.834914 234.352660 2187.885475 19 31 35
-143.680632 230.141115 2220.465279 129 141 143
-53.533965 -400.541401 2989.550209 215 230 239
20.806783 -2346.494675 2786.857605 101 116 132
-141.746926 252.064753 2178.235435 234 249 255
-141.746926 252.064753 2178.235435 234 249 255
-112.915838 204.542875 2221.177864 13 23 30
-108.543813 255.857396 2244.625854 132 148 160
-110.403395 284.621453 2229.487801 0 7 23
-101.163661 285.542417 2198.809624 158 174 187
-99.457151 291.771626 2175.349236 36 52 65
-99.457151 291.771626 2175.349236 36 52 65
-76.151985 138.170302 2238.804626 15 25 35
-197.009718 320.861435 1150.778866 122 136 154
51.647371 -1266.285896 2575.140762 15 26 30
57.106864 -1311.106014 2595.947647 167 182 191
72.872901 -1277.905178 2641.059685 186 185 189
-60.725808 304.193330 2186.505318 135 151 164
19.214302 45.183507 2720.373154 114 144 161
90.760601 -1455.282688 2608.860588 212 212 224
-72.947919 313.719821 1994.932365 148 168 186
140.323949 -2124.127960 2555.776024 167 185 196
-8.277319 266.213584 2387.754059 122 134 146
60.570031 -319.028139 2666.225433 174 192 209
52.808779 -136.720657 2647.606277 129 149 166
130.809426 -1465.827656 2595.212173 130 143 157
-3.860315 280.170488 2312.795639 120 136 148
156.163311 -1964.395142 2555.632591 111 127 133
8.388846 153.512919 2329.436302 30 39 52
89.932650 -736.030912 2555.543137 206 202 208
121.446013 -1235.630798 2552.133179 171 176 191
91.133457 -657.416773 2562.700272 176 180 185
179.830134 -2094.223595 2518.921471 41 50 59
-2.818343 284.448409 2133.269310 48 65 74
110.810983 -413.300419 2575.066566 22 32 49
106.293058 -342.190170 2561.251831 26 41 57
138.476920 -1005.921841 2523.338699 174 196 202
178.719866 -1578.879929 2538.564491 217 239 250
107.946944 -310.225844 2559.297752 40 50 67
74.346638 -223.065901 2397.165871 25 34 48
134.447217 -625.538158 2557.967186 165 175 185
188.848019 -1599.773693 2526.853371 96 110 116
183.269250 -1533.504677 2481.571007 94 113 121
193.172967 -1702.762413 2465.780830 140 145 148
163.895071 -912.112999 2530.886650 190 211 219
16.996433 285.330820 2081.554985 68 86 97
166.127706 -1000.206280 2487.791252 5 8 12
198.101974 -1160.359859 2564.682198 188 212 218
250.505662 -2076.816368 2535.298729 223 197 181
218.937922 -1597.491932 2482.420921 33 38 37
190.043032 -1066.224575 2488.371277 11 16 19
173.291826 -662.940788 2490.300369 194 216 222
281.327820 -2096.216011 2564.409828 218 194 164
80.113310 275.148463 2197.824097 22 49 59
228.468275 -1078.369427 2478.481483 36 41 42
93.143076 269.829893 2233.358002 212 238 250
-96.280688 -197.539723 1126.350689 184 209 225
233.387423 -1011.258411 2476.407623 29 19 19
215.067887 -660.515022 2476.726151 33 38 37
329.488039 -2183.777046 2524.779701 28 13 10
-39.720926 -468.748331 1284.413624 156 158 152
252.575755 -918.131638 2490.552330 174 158 152
100.955749 278.011990 2111.285591 6 23 36
293.688321 -967.041492 2541.767311 106 97 84
280.969453 -993.295097 2463.705063 236 233 235
270.662594 -620.926571 2511.688995 164 173 160
325.462484 -1563.536644 2391.026878 118 147 154
147.876430 276.700473 2188.040924 23 38 54
292.127252 -612.086010 2519.305038 139 143 131
307.756042 -608.285332 2530.556488 49 50 41
299.310255 -1103.970242 2312.706757 9 26 35
-12.466432 -454.702759 1229.787827 152 139 123
355.459905 -1913.250923 2244.791794 86 87 83
269.336319 -196.140766 2333.796120 0 2 15
253.074408 82.521784 2347.626114 153 159 178
394.718575 -1954.304314 2287.392616 165 158 138
331.537151 -609.115696 2389.752388 153 154 138
367.370176 -1557.114410 2232.151413 97 120 128
366.561317 -1522.202110 2227.775383 174 195 210
407.720757 -1681.920624 2310.225105 170 164 151
385.172081 -1595.114517 2240.814972 199 209 209
349.708700 -918.827820 2281.176949 201 198 200
322.017217 -178.343272 2366.954041 4 15 19
307.251191 55.979419 2360.808563 68 72 77
326.867223 -184.899414 2346.188164 92 100 107
363.065624 -1002.293873 2250.250244 48 41 44
376.509213 -1023.083878 2257.843208 86 81 80
385.384607 -1010.321999 2279.789352 91 89 89
439.494419 -1942.636871 2202.891922 214 193 166
439.494419 -1942.636871 2202.891922 214 193 166
438.836622 -1939.704132 2162.924957 74 50 20
438.836622 -1939.704132 2162.924957 74 50 20
160.573947 -307.070136 1672.914314 184 209 225
362.290359 -571.622086 2266.152573 43 49 54
361.023951 -548.299694 2259.436226 58 73 76
461.208010 -1963.168335 2194.183731 217 195 167
392.414236 -936.515903 2248.910141 156 158 152
408.540535 -1024.009132 2243.567085 144 122 110
392.374849 -595.033884 2283.104134 55 59 60
123.417366 295.264125 1650.663185 124 141 160
395.852447 -565.656328 2264.848709 11 19 19
439.808702 -1664.903450 2092.723465 182 154 123
384.613538 -190.569067 2285.040283 2 17 26
447.958183 -1546.858501 2111.133385 111 137 137
448.580694 -628.125000 2330.867577 215 222 207
455.238581 -634.168386 2346.004295 215 222 207
-395.629120 251.002169 -11.667225 201 210 219
380.465245 -415.635586 2174.155426 78 103 119
390.565515 -173.457098 2264.801025 43 54 58
-27.363735 -160.553789 1250.864601 153 154 138
163.820255 307.832932 1658.604050 0 4 23
456.158352 -927.267647 2163.557434 44 35 21
173.531079 301.341748 1654.906464 0 7 24
173.531079 301.341748 1654.906464 0 7 24
462.913418 -919.263744 2156.880379 152 139 123
389.893460 -105.509090 2153.633499 39 58 63
387.258244 -49.982092 2149.596214 3 7 18
403.088903 -155.498886 2161.960602 115 134 149
496.518469 -1640.571022 2040.691566 215 219 224
192.673588 297.399092 1680.895805 13 36 52
396.737719 -54.669440 2145.628738 137 144 164
398.290491 -91.382074 2136.214256 115 132 158
401.999426 -61.767524 2139.384079 82 100 123
480.556917 -602.835894 2208.229446 83 65 54
405.312538 22.131348 2162.229538 160 171 185
508.369970 -1642.033958 2005.562019 120 131 145
531.586266 -1659.867668 2005.823326 179 194 210
913.015938 -628.683138 3274.228668 184 209 225
293.689799 104.274607 1802.490997 173 189 202
438.100433 -7.878106 2097.486305 148 176 206
539.347553 -1387.323380 1996.121025 90 109 122
538.820696 -1427.165222 1973.977470 159 179 196
511.107779 -927.277279 2023.147774 196 219 227
166.881573 318.768692 1463.967514 132 151 172
452.867842 -61.417186 2084.103775 59 86 113
500.616455 -989.089966 1970.564270 229 238 242
520.050430 -1027.283955 1992.002106 12 31 36
513.434696 -852.289295 2014.823914 174 193 200
518.257332 -930.610466 2001.983833 196 215 228
531.295681 -1076.714802 1998.161125 64 70 83
482.130289 -474.431181 2025.036621 58 84 98
503.667450 -536.838245 2044.572258 235 253 255
530.035114 -1044.497967 1981.517982 32 60 67
487.183905 -385.766506 2033.917999 183 202 210
477.132988 -119.697917 2050.940323 59 82 108
515.842104 -514.846230 2041.421318 81 100 108
541.744995 -1006.341553 1975.140572 154 172 179
510.268402 -521.092224 2019.484901 207 224 233
557.346487 -1307.896137 1922.176743 6 12 17
550.627851 -1031.889248 1966.702843 143 169 181
536.289072 -691.740131 2010.393715 153 169 181
531.453943 -590.482235 1983.218002 162 181 202
573.608112 -1089.404106 1871.649551 149 169 186
573.608112 -1089.404106 1871.649551 149 169 186
508.175516 -75.924373 1969.632721 74 101 121
555.363894 -678.000879 1927.037239 151 177 191
550.871992 -516.831446 1955.447388 161 184 206
521.137524 -83.280498 1974.183655 163 190 210
601.222038 -1345.517540 1826.437569 161 188 198
579.535961 -689.162445 1923.231697 147 173 187
718.093204 -460.870743 2243.230820 62 84 90
582.500553 -590.840769 1908.149529 154 178 200
578.667021 -422.612667 1934.167480 80 104 122
617.093039 -1172.873116 1837.065315 154 165 179
573.942709 -472.585583 1912.701225 168 192 216
350.289607 204.582930 1595.483494 8 17 20
637.896156 -1281.147671 1830.385780 36 35 44
546.321058 50.211316 1923.811913 177 203 227
407.929993 171.851337 1659.293938 152 172 190
592.113018 -418.888998 1875.900459 73 97 115
643.498325 -1045.749760 1828.786278 40 50 68
616.654825 -713.351107 1852.057457 136 156 174
2090.086746 -204.652905 4805.144119 63 89 113
622.064257 -767.834044 1844.696236 67 90 105
736.455727 -1491.836452 1895.520401 71 77 90
578.255892 -207.102847 1877.024269 64 80 96
416.007090 300.465679 1653.505516 114 124 141
750.636292 -1394.939232 1895.968246 81 87 100
627.784967 -675.046587 1825.559235 54 67 81
643.267488 -693.432188 1826.270866 10 18 31
469.397926 87.265128 1677.512741 188 207 210
469.759846 138.751471 1684.396744 0 14 20
447.764158 201.410341 1643.715286 6 16 23
587.615013 -15.036033 1842.278481 86 108 133
630.216932 -418.633747 1826.359940 92 108 121
604.443979 -103.475571 1844.308090 61 85 105
639.131165 -475.710249 1811.635590 26 35 55
652.276182 -414.139938 1839.813805 181 197 204
605.590391 15.249716 1844.803047 68 94 118
610.168123 -59.113109 1829.281425 115 134 155
661.109114 -430.073118 1834.716797 104 113 127
403.297853 303.893018 1541.117382 11 25 43
416.779900 302.453971 1555.759716 75 82 99
618.310976 -186.425126 1790.864563 56 71 80
616.111231 46.381339 1827.138138 48 71 93
616.111231 46.381339 1827.138138 48 71 93
699.257088 -432.231808 1860.006523 84 90 103
745.859480 -661.085463 1888.286591 27 27 39
614.196634 -103.192389 1781.920624 68 84 97
631.230974 -182.933807 1792.416573 158 168 178
472.126293 290.362239 1623.354340 115 138 154
924.772835 -1446.746445 2009.044456 82 88 99
638.271713 -220.727921 1789.237213 15 24 37
635.941172 -146.190274 1789.080048 9 18 28
691.543198 -363.925505 1826.407051 67 76 85
618.533945 22.022511 1775.195312 194 205 219
981.261539 -1472.253418 2043.755722 90 97 106
617.551661 155.993557 1798.568344 149 165 182
734.634113 -419.138908 1865.519714 45 43 55
880.354214 -945.889091 1975.895309 21 30 39
641.638565 47.053587 1797.967529 45 56 70
638.300800 127.843940 1805.316925 161 170 190
705.115318 -267.268848 1824.752998 11 19 36
639.455843 159.456670 1809.089661 147 157 175
639.455843 159.456670 1809.089661 147 157 175
641.367912 166.403770 1802.555275 48 54 73
967.152119 -1147.725582 2028.893089 30 28 40
754.840231 -155.551565 1862.759781 26 38 48
1005.369759 -1146.063137 2030.229759 31 29 41
748.593426 -93.797123 1859.604836 32 41 54
795.536423 -154.022908 1893.150520 14 23 32
779.243517 -19.501537 1881.196976 21 30 44
1288.145828 -1842.242050 2251.116943 54 56 57
871.764374 -231.513643 1938.969803 14 18 29
671.439409 282.238007 1747.481918 101 115 127
667.484999 269.822526 1734.854317 1 13 31
843.963814 -59.464610 1922.996140 78 84 95
1442.706299 -2055.192947 2376.802063 61 58 67
1156.818104 -972.494507 2187.470245 115 108 111
674.119616 285.345960 1738.931084 70 79 116
674.119616 285.345960 1738.931084 70 79 116
1435.407829 -2083.237648 2347.545624 41 37 43
1209.647846 -1069.059467 2228.688049 19 3 10
1209.647846 -1069.059467 2228.688049 19 3 10
915.525532 -262.841630 1967.280579 22 26 37
679.503345 280.784035 1730.164337 125 155 238
1468.094063 -2076.976395 2362.084770 165 169 174
1474.734020 -2121.850204 2357.545090 45 45 51
1316.650391 -1535.769558 2249.103928 85 91 96
1187.097168 -1102.371788 2134.792519 8 14 19
1242.727375 -1068.581772 2211.778831 121 123 123
1242.727375 -1068.581772 2211.778831 121 123 123
1081.611538 -511.144304 2099.277115 91 99 116
1373.627281 -1507.755661 2282.422829 38 47 56
1373.627281 -1507.755661 2282.422829 38 47 56
933.830357 -1.582485 1977.592468 119 127 140
1273.487759 -1102.815342 2207.127571 59 64 73
1433.787155 -1594.038105 2323.277855 115 117 127
950.638390 5.212405 1985.222626 79 84 99
1003.715038 -151.154447 2015.680504 42 52 62
1002.995491 -49.781269 2020.217514 48 57 67
1085.845852 -313.563323 2071.200562 75 74 84
1021.946049 -43.913943 2040.599632 21 30 40
1451.042747 -969.275570 2381.372070 34 33 37
1472.168446 -1063.908100 2377.454758 102 105 110
1215.007973 -410.832644 2145.423317 57 64 73
1504.948044 -1112.788105 2373.872757 18 19 29
1491.437626 -1119.446373 2351.810837 67 68 78
1575.062084 -1352.156448 2395.680237 21 25 36
1520.745850 -943.354797 2391.202736 114 126 126
1486.329651 -643.928099 2404.746056 22 18 24
2019.533920 -2368.954849 2679.952812 85 94 98
2007.511711 -2071.697426 2710.029793 88 94 93
2055.972099 -2159.717560 2722.092628 35 35 41
2053.446770 -2108.209229 2704.637337 144 147 151
1683.103943 -1172.839737 2438.636017 34 43 52
1723.708344 -1083.249760 2507.414246 29 38 42
2103.161240 -2265.165901 2725.858116 30 36 41
1387.054443 48.869970 2317.764664 38 47 57
1830.038071 -1300.809574 2563.483620 30 35 44
1391.106701 -111.358893 2252.673340 108 118 128
2302.656174 -2145.875168 2849.793625 119 120 124
1580.652905 -390.239477 2366.647148 20 26 31
1580.652905 -390.239477 2366.647148 20 26 31
1992.472649 -1095.913982 2700.119591 20 26 33
2336.621666 -2177.136803 2860.309601 31 34 38
2013.793182 -1100.822067 2693.869209 17 23 28
2027.834511 -1224.474239 2683.367538 27 36 45
1755.895424 -518.654299 2507.393456 101 111 121
-443.196344 37.124363 89.474142 10 13 18
2059.384346 -1130.194664 2712.585831 21 28 31
2539.249992 -2138.949585 2981.884003 94 92 98
1287.101173 270.663214 2070.310402 78 87 100
2555.292702 -1791.318130 3028.462791 159 168 172
2555.292702 -1791.318130 3028.462791 159 168 172
2667.715645 -2075.713539 3089.716148 24 29 30
2667.715645 -2075.713539 3089.716148 24 29 30
3018.025970 -2996.117783 3274.875259 83 87 82
1878.594208 -330.977774 2552.137947 95 101 108
2202.826500 -714.294147 2773.413849 24 39 42
2618.704033 -1461.782074 3043.389511 108 110 120
1846.406364 145.338559 2547.393417 27 36 46
2596.616554 -1360.882664 3028.519249 112 113 123
1882.400703 156.839275 2550.155449 73 78 87
2165.995216 -164.192641 2738.141060 122 129 132
2094.220734 115.870082 2707.738113 58 67 76
2917.133141 -1196.628094 3230.057526 3 4 8
2167.411613 149.858546 2734.376907 107 108 118
2333.841705 -70.926923 2828.001213 95 100 109
2605.300522 113.998234 3005.054855 160 164 175
2851.847267 -215.517521 3166.581917 20 23 28
2817.281532 -171.962166 3130.585098 128 133 142
2817.281532 -171.962166 3130.585098 128 133 142
-528.281832 -75.391650 555.631828 49 31 2
-518.504763 -69.650167 550.212431 76 67 64
-467.116451 -26.347005 503.871536 72 27 0
-4193.472672 -3882.707977 5570.283890 255 229 120
-4228.709793 -3786.182785 6046.779633 253 221 121
-4544.519806 -767.970753 6723.568726 72 67 69
-4544.519806 -767.970753 6723.568726 72 67 69
-513.037395 -44.765201 571.245861 13 19 26
-526.529264 -79.823077 611.296511 44 30 0
-506.590605 -51.396203 582.709694 110 122 122
-3909.406662 -3660.805893 6355.052948 232 188 124
-3631.554031 -3129.788208 5898.296738 239 206 113
-3640.124893 -4441.392899 6024.859238 205 158 67
-3919.596481 -152.427387 7116.950226 153 151 151
-3559.822464 -2275.806808 6457.766724 235 197 165
-3469.843292 -3987.296295 6248.951340 161 107 46
-3390.560150 -4100.172806 6263.568878 252 200 133
-3688.102341 -128.917420 6941.771698 204 203 199
-894.620705 259.064674 1412.953663 163 165 159
-3462.709808 -4021.724319 6584.955597 255 209 141
-2876.724815 -108.013356 5529.481125 45 59 58
-3408.081818 -4210.233307 6635.058594 237 190 136
-3464.754105 -234.910345 6789.508820 175 170 169
-3690.615463 -1962.265587 7261.442566 255 225 180
-3316.491699 -4437.264252 6494.454956 176 126 36
-3703.376007 -606.281900 7385.606384 153 153 159
-3719.412994 -655.865717 7462.183380 76 72 78
-2947.806740 -4359.899902 5831.540680 195 147 69
-3689.089203 -745.013142 7481.607056 103 111 118
-3006.215286 -4440.783310 6005.670166 238 194 135
-3164.823723 -112.496114 6366.090012 41 53 55
-2956.869316 -4510.793304 5907.457733 243 198 130
-2983.877754 -4488.171005 5976.263046 245 198 130
-3636.512375 -1328.573608 7443.880463 132 135 140
-2322.898865 -547.256184 4664.284134 36 50 68
-3456.626511 -1450.099564 7246.025085 137 154 157
-2609.659767 -97.142595 5339.867020 14 26 28
-3256.056976 -835.783005 6871.983337 10 19 32
-822.473431 220.127320 1357.479286 117 117 111
-3348.114014 -2571.756172 7310.646057 96 67 53
-2860.306549 -55.447477 6197.189331 45 68 70
-2938.134193 -95.403665 6395.178986 48 72 70
-2168.348503 -35.305035 4615.013885 66 83 86
-2665.333748 -4024.631500 5848.949051 255 210 144
-2795.722580 -4471.382523 6244.853210 180 123 62
-2219.094849 -121.025324 4823.746109 156 179 174
-2602.428055 -185.856009 5762.596512 116 123 120
-2847.798157 -4435.027695 6428.588867 166 115 52
-2755.954742 -4474.974442 6240.501022 197 147 65
-2720.417976 -165.596724 6110.876846 106 120 118
-2746.749687 -4348.317719 6370.980835 241 188 131
-2426.481628 -4011.654282 5588.053131 231 185 90
-1572.237492 115.454674 3367.305756 103 94 97
-1834.223938 3.734104 4048.022461 101 114 116
-2408.515739 -68.658346 5634.835815 73 98 94
-3114.392281 -2598.044777 7560.451508 204 167 141
-2462.126732 -140.953100 5792.168427 78 90 90
-3019.680023 -2414.720154 7337.768555 59 42 33
-2679.632568 -4219.592667 6522.876740 246 197 153
-2344.667053 -107.974052 5534.887314 111 133 128
-2776.906204 -1716.770363 6738.265228 46 51 52
-2718.096352 -1650.925064 6626.354218 53 56 60
-2602.497482 -1576.866722 6407.961273 148 151 155
-2635.381699 -4815.772629 6665.017700 241 188 125
-1271.685410 112.053907 2770.036697 119 128 138
-2776.486206 -4299.282455 7079.418945 118 67 34
-2526.669693 -3857.756042 6657.697296 111 67 30
-1488.649464 7.392269 3520.338058 222 244 242
-2347.624969 -1930.449486 6143.824387 53 57 46
-2638.728142 -4139.896011 7215.962982 241 188 137
-2711.711693 -1419.606876 7358.029175 97 106 115
-1522.048855 108.660829 3720.262909 70 135 119
-2116.499329 -4527.875519 5761.484909 226 177 127
-2654.306984 -1424.529934 7249.766541 34 40 47
-2640.651894 -1555.041122 7264.979553 135 139 140
-1596.739769 36.479682 4054.381943 224 237 235
-2737.367630 -2972.475052 7903.957367 87 68 61
-2737.367630 -2972.475052 7903.957367 87 68 61
-2425.122643 -4197.119904 7031.385040 152 86 21
-2304.323959 -4010.099411 6661.808777 160 100 40
-2445.279503 -1628.376198 7018.780518 173 183 183
-2266.200066 -1409.382153 6432.429504 135 143 143
-2332.374573 -4475.113297 6851.155853 222 173 125
-739.280510 218.737602 1438.898563 113 114 112
-2408.543587 -2580.833435 6972.926331 83 38 24
-673.313570 268.130827 1235.532951 138 147 160
-2309.454918 -2503.343010 6671.355438 217 177 165
-2103.239632 -4305.745697 6149.647903 245 190 115
-2226.758766 -2422.500229 6565.171051 69 42 15
-2141.831017 -4191.250992 6393.801880 145 85 33
-2141.831017 -4191.250992 6393.801880 145 85 33
-2557.722092 -1205.595875 7578.049469 4 17 25
-2297.346115 -203.373170 6687.576294 14 26 28
-2410.429764 -2595.415306 7370.275879 248 199 167
-2016.022110 -2285.576630 6076.358032 206 161 128
-2230.138969 -388.436246 6785.366821 116 119 124
-1890.969658 -83.995682 5611.198425 99 139 128
-2266.608429 -494.893456 6990.290070 17 21 26
-2164.784813 -190.283537 6630.968475 102 118 117
-2466.791916 -512.379789 7745.874786 21 24 29
-2218.684006 -1574.345684 6993.770599 140 143 148
-2218.684006 -1574.345684 6993.770599 140 143 148
-2089.802170 -4324.053574 7020.279694 245 195 119
-1357.271671 90.446514 3929.811478 24 96 73
-2180.162621 -4056.684494 7514.485168 229 192 170
-2016.078568 -4265.977097 7565.345001 127 97 56
-2261.961746 -147.590423 8345.023346 71 84 86
-1739.503098 -3991.094208 6774.659729 223 181 139
-1999.226952 -111.812997 8348.133850 10 34 32
-1632.361221 -4345.319366 7488.609314 186 132 69
-1002.726269 113.098431 3457.178116 115 125 135
-1002.726269 113.098431 3457.178116 115 125 135
-927.917099 112.110949 3523.432922 129 139 149
-965.078735 24.192992 3792.811584 24 67 58
-954.927349 142.764688 3772.495270 69 79 89
-954.927349 142.764688 3772.495270 69 79 89
-885.314369 74.658489 3493.965912 93 110 107
-607.532883 272.055578 1664.885330 147 160 176
-445.677805 -40.524372 498.436689 255 255 191
-832.565308 206.715846 3580.799484 95 111 123
-426.921892 336.347723 -82.465404 110 122 132
-654.743958 -3566.017914 4109.511185 93 100 109
-702.640581 -2187.183762 4322.611237 119 131 141
-736.368513 227.197409 3453.160477 93 109 121
-698.261929 -1799.005508 4198.947906 116 128 146
-619.768715 -3112.069702 4079.320526 74 56 55
-516.519499 283.350730 1308.970070 134 150 163
-610.050249 -2714.292526 4112.324524 191 199 206
-456.808519 -32.817671 811.583328 200 206 225
-560.902071 -2823.273468 3713.945007 255 224 211
-503.044176 -3273.952103 3598.814011 251 249 239
-600.266218 -2141.872025 4102.839279 141 125 119
-497.699451 -3162.273407 3537.435913 128 144 133
-479.979897 -3005.101204 3360.844421 135 148 140
-530.363989 -2690.688133 3870.196152 154 141 119
-603.616810 -1225.976372 3983.730698 166 183 202
-627.382088 -1141.608047 4225.329208 98 117 125
-604.780436 -1152.556419 4118.670273 0 8 21
-568.592930 -1852.566719 4213.844299 187 179 179
-513.040209 -1887.768173 3501.972580 233 201 166
-460.732126 -3101.849937 3827.081299 98 89 86
-472.065973 -2668.113708 3786.851120 83 87 81
-448.141384 -3037.000465 3798.283768 255 250 247
-434.001493 -75.028962 706.746674 9 27 38
-573.949909 -612.180281 4165.485382 197 216 224
-471.975613 -2031.252289 3801.801300 81 78 70
-468.013430 215.265393 87.766415 172 183 187
-522.515678 -1141.870499 4274.098587 17 12 13
-407.770681 -2848.770142 3914.400482 243 241 240
-515.339231 -1048.944378 4022.330475 133 128 129
-489.027500 295.980692 1605.637169 70 84 103
-505.652523 -1202.731514 4181.827927 73 72 76
-527.675533 -670.188999 4006.789398 62 70 77
-390.226531 -2606.417465 3608.221817 245 252 249
-420.735073 -2159.148407 3726.406860 219 192 171
-415.152550 -823.914814 1677.414322 216 209 189
-480.539465 -1336.797523 4494.256973 12 13 17
-393.602228 -1984.799767 3324.559402 45 50 51
-405.737019 -2013.771057 3867.298508 185 161 137
-402.603054 -1997.100639 4070.399857 210 198 164
-391.061974 -1945.850945 3764.371109 255 240 212
-478.356028 -722.769022 4324.814987 48 50 51
-425.547028 -78.193164 722.874403 9 27 38
-470.398188 306.615043 1601.896667 152 169 178
-429.110670 -1066.949272 3955.276108 157 154 156
-466.586161 294.903779 1679.305649 95 102 111
-476.828003 -246.741152 4195.930099 12 22 39
-476.828003 -246.741152 4195.930099 12 22 39
-363.960528 -1741.829491 3622.671890 197 178 151
-358.447886 -1592.532063 3842.515564 96 112 124
-374.752140 -1238.179588 3995.787811 25 19 24
-394.881701 -929.176712 3711.158752 125 126 130
-399.964905 -854.360580 3462.959671 125 126 130
-450.280619 25.000253 3963.278198 37 49 51
-377.518106 -1083.018398 3961.782074 23 21 27
-330.237770 -1764.940262 3670.643997 210 206 188
-418.343115 -80.825585 736.609697 9 27 38
-349.137926 -1064.145947 3878.282166 7 3 9
-325.727344 -1024.644375 3705.736160 50 43 46
-321.833467 -1023.257923 3636.621094 162 160 160
-357.045507 -236.513281 3956.565857 3 19 26
-310.286140 -1018.340874 3662.269974 44 38 39
-351.424861 -197.564352 4064.225388 4 13 17
-294.845176 -1068.761826 3754.711914 159 155 154
-239.286494 -1996.767616 3366.697311 225 209 180
-239.286494 -1996.767616 3366.697311 225 209 180
-269.055390 -1264.501476 3565.489197 160 185 195
-226.163578 -1957.750320 3238.557434 113 96 70
-268.124175 -1054.997635 3597.391891 48 43 44
-272.431326 -1129.413223 3254.862595 28 46 57
-178.354955 -2261.814499 3331.111908 84 96 100
-193.362761 -2091.852379 3207.378387 70 78 77
-250.634837 -1141.309357 3465.351868 40 43 51
-273.949766 -666.677094 3710.225296 29 28 30
-184.891331 -2162.648964 3158.471107 211 223 227
-406.329823 312.091494 1598.330116 125 140 149
-203.059721 -1788.753510 3237.581635 233 224 190
-366.640615 213.062906 2478.460121 164 174 191
-223.469830 -1203.071976 3392.181015 43 56 70
-223.469830 -1203.071976 3392.181015 43 56 70
-217.236447 -1252.531433 3442.817688 152 168 180
-355.566597 204.652548 2478.351593 4 17 25
-189.838135 -1754.571152 3162.859344 207 197 173
-396.519303 313.379431 1615.785980 109 125 131
-435.820723 -76.640463 469.652033 102 116 114
-169.471729 -1781.109047 3178.502655 244 243 229
-389.568067 311.237264 1608.209038 110 126 132
-165.460694 -1693.820763 3261.080551 236 233 219
-175.175893 -1647.100258 3119.523811 233 230 215
-193.486261 -1094.540501 3386.002731 135 148 162
-180.983174 -1147.018242 3445.954514 140 154 166
-263.625884 259.375787 2657.560730 191 205 217
-252.101946 247.895765 2647.597313 21 33 43
-260.305285 281.318688 2550.053215 17 36 49
-337.632823 313.357949 1667.499542 175 191 207
-225.332856 231.364417 2810.586739 221 230 234
-266.620159 253.304458 2353.857803 21 38 51
-230.057621 279.286265 2706.508827 185 201 213
-213.047767 263.468766 2620.971298 1 15 27
-271.381927 309.175372 1851.800728 88 105 124
-341.613626 297.950196 1203.906536 77 94 113
51.598328 -1516.200638 2780.120850 114 130 147
2.615503 -380.640221 2977.969170 155 171 183
78.495651 -1630.725288 2687.682152 164 177 191
-155.000997 257.902527 2235.364914 11 25 31
-129.185963 204.775739 2277.353859 183 200 203
83.997279 -1470.860386 2657.884216 112 120 133
72.028351 -1316.275787 2664.834976 15 31 44
-116.949570 170.188689 2254.199028 10 20 30
-220.105815 326.303530 1751.105499 139 157 174
-110.110557 159.523070 2259.149551 192 209 218
-157.182527 306.666541 2023.596001 128 145 164
118.574667 -1468.296909 2627.817535 47 46 50
111.052454 -1378.328609 2609.520721 34 36 36
-103.880644 276.892900 2256.652451 146 155 164
-147.123432 311.222887 2037.531471 135 152 171
-342.295074 -331.523585 874.143696 86 65 43
121.620405 -1467.388725 2561.114883 143 153 163
78.561515 -244.664526 2852.121544 176 198 216
176.604462 -2068.446541 2496.281052 58 61 69
136.017025 -1527.541542 2546.861649 180 196 213
-68.101162 297.476554 2273.345566 160 173 189
139.464915 -1049.310398 2665.202904 20 17 26
150.505972 -1552.609634 2485.255814 109 126 135
147.235465 -1032.809544 2643.801308 166 174 187
156.738317 -1024.767399 2683.106232 153 161 174
150.152290 -1067.704582 2602.915192 187 203 215
159.404445 -1098.908806 2620.824432 111 128 137
151.033831 -766.506386 2711.310959 65 69 74
-95.156020 309.664989 2056.980515 134 154 171
163.923514 -1065.320683 2617.682838 9 26 35
-25.233293 275.543666 2341.251564 121 130 144
-283.736873 302.392387 1179.127598 125 140 159
176.604247 -1053.566933 2603.110313 10 23 31
171.576953 -1112.502193 2538.750839 18 24 29
239.445114 -1670.288467 2569.046783 141 145 150
163.977444 -454.595137 2741.416550 26 45 58
184.403169 -991.014957 2598.619270 179 195 201
184.403169 -991.014957 2598.619270 179 195 201
190.746951 -1394.124889 2452.944946 169 183 202
-74.208140 309.292316 2018.172264 88 108 125
162.410963 -376.782727 2717.067528 163 185 191
171.709776 -423.063850 2734.510231 24 42 49
10.083657 -210.008621 2220.712662 30 39 52
62.328959 147.481370 2496.839142 37 47 54
24.869248 270.134330 2391.860962 23 36 50
24.869248 270.134330 2391.860962 23 36 50
-40.156254 301.715374 2121.888542 132 144 162
184.087610 -413.077021 2738.893700 203 219 225
190.217352 -441.506624 2752.136612 223 244 252
183.269513 -1156.396198 2410.548973 155 168 182
204.181051 -1281.003189 2441.253471 152 149 165
-225.410843 307.047653 1353.368664 140 155 171
162.436974 -153.145766 2710.825920 155 168 182
228.350377 -1527.699471 2409.961128 80 99 104
-7.594191 290.008736 2187.795830 154 157 172
200.537968 -375.208688 2721.906853 129 150 158
224.728251 -1156.351376 2509.785461 185 204 212
172.832382 -98.877776 2692.824554 13 70 71
172.832382 -98.877776 2692.824554 13 70 71
182.838893 -67.408121 2742.033768 47 66 74
214.774537 -608.383608 2631.801224 203 218 227
-143.680561 -773.266125 1180.249023 192 175 148
239.369154 -1041.359615 2536.106491 107 100 105
232.782006 -957.182026 2544.488525 93 96 100
235.641789 -563.140249 2655.190086 224 243 255
-305.788708 -114.210284 828.247452 27 52 62
211.797738 -375.797129 2614.274025 123 139 152
256.340623 -949.566078 2546.785736 46 40 35
-162.346780 -388.849616 1217.899418 150 149 145
-162.133408 -416.037750 1205.888939 130 106 94
-230.859351 71.170002 1154.793930 58 78 89
315.839887 -2006.840134 2286.725998 29 34 32
-157.446539 -380.686116 1211.678886 156 141 125
308.730769 -2001.890945 2217.053413 243 251 255
309.715438 -1869.841957 2261.253166 62 53 40
203.107643 -913.650322 2213.736725 160 108 96
229.473686 60.509676 2587.046242 69 94 114
112.032259 295.890093 2273.436546 126 145 158
121.841598 285.514593 2288.764381 39 61 73
262.662792 -880.681992 2339.428711 165 148 135
267.672753 -524.758339 2470.148468 66 88 100
478.569746 -1307.760620 2868.083954 80 85 84
208.672428 245.085263 2491.824722 190 208 231
208.672428 245.085263 2491.824722 190 208 231
355.433226 -1950.296974 2181.656837 169 148 133
281.877470 -971.964455 2290.508652 167 123 110
331.151986 -942.066574 2437.107086 152 137 128
337.874079 -1818.832779 2134.645462 49 30 9
362.853384 -1875.483894 2161.657333 192 174 151
338.539290 -987.475586 2356.197929 253 253 241
-135.921252 -417.096329 1138.812065 15 14 16
354.122949 -612.398911 2508.940697 68 61 52
366.835976 -1706.410599 2184.959984 255 252 225
50.813174 -1109.157944 1446.456528 171 150 122
271.044135 -101.816368 2419.093895 162 188 205
-534.584999 29.534215 127.769744 208 225 234
381.549978 -1882.505226 2143.848038 205 182 160
286.258817 -145.895731 2422.237778 159 175 191
236.365652 -1418.576908 1874.550629 167 151 122
280.856371 83.405811 2442.169952 166 190 210
179.207575 263.914561 2200.975609 125 140 149
288.918400 136.069071 2456.363487 72 91 112
231.399989 -34.533420 2259.004211 35 54 67
422.240782 -672.553825 2546.125221 119 108 86
196.603429 286.830878 2224.853134 212 226 238
266.706705 257.295871 2399.348450 141 154 176
413.532639 -1733.831406 2164.543152 251 234 207
413.532639 -1733.831406 2164.543152 251 234 207
307.516456 -368.741155 2290.086365 27 46 54
-326.215172 -240.208340 802.357578 95 97 97
291.888309 -882.263756 2098.909760 46 50 45
107.155526 290.659451 1937.098885 185 207 213
327.762532 -216.414428 2351.078796 138 165 175
323.700786 -288.692880 2317.635727 67 94 108
394.522548 -1358.021259 2159.337425 82 101 122
123.862183 237.997246 1939.502907 195 211 223
123.862183 237.997246 1939.502907 195 211 223
389.579320 -925.833035 2255.714226 28 25 21
-64.080238 76.704204 1393.430805 81 100 115
121.289575 286.245680 1927.970314 157 176 189
400.252485 -943.706226 2265.283394 150 149 145
130.572772 232.192826 1932.801819 58 78 89
363.973594 -551.042461 2266.372871 65 71 84
-511.479044 65.349221 253.836036 158 163 178
133.713329 289.323902 1936.889267 37 56 71
409.409142 -1490.245628 2079.323959 152 168 175
363.363719 -537.295437 2246.133041 220 232 242
406.574440 -1454.067898 2069.781303 155 174 181
406.989145 -773.765993 2267.141342 162 151 137
396.253371 -595.718098 2290.272141 40 51 49
-106.215799 -197.457361 1164.237785 47 67 84
387.589979 -943.861008 2143.215179 254 252 251
156.865048 302.702308 1941.942406 166 186 204
138.791633 299.397445 1893.910789 59 79 97
379.022908 -809.468460 2137.283897 168 136 107
457.289600 -1738.250160 2038.004875 178 163 131
414.282513 -584.018230 2271.854401 136 137 128
482.335806 -1772.779655 2081.296730 162 148 119
395.573831 -528.529215 2242.864609 221 242 250
427.551365 -718.541050 2234.459114 214 212 182
412.400246 -138.512862 2343.403053 19 25 24
382.671618 -172.008097 2246.615219 68 72 77
482.839489 -1595.932388 2048.277283 156 157 148
422.512817 -145.776534 2326.849174 79 84 85
446.909142 -1489.568996 1986.109924 72 88 94
473.596573 -1555.417156 2016.040611 240 251 255
468.604374 -1546.663570 1997.404671 209 224 227
442.113161 -907.051945 2114.515877 9 20 17
463.861322 -1656.505203 1949.562454 102 114 118
276.888776 165.607381 2046.045685 214 231 240
438.788414 -44.351265 2328.468513 32 27 29
-44.022650 -184.169126 1223.872948 48 66 77
279.325247 174.293780 2036.466789 81 100 115
-134.515297 -206.842160 1019.148254 140 164 184
398.480797 -339.605713 2108.694267 66 82 99
473.353481 -1474.610233 1945.930099 161 183 195
394.948149 -84.274548 2146.844673 143 169 181
410.138130 -98.637676 2174.436188 153 177 189
400.221157 -142.300272 2128.540611 160 180 205
457.409573 -1010.931015 2009.397697 102 105 109
479.831600 -902.876472 2051.079559 19 34 30
467.287159 -914.295769 2020.393753 227 242 244
476.619434 -1005.216503 2010.006523 141 154 156
481.270456 -993.034267 2019.569206 160 172 174
413.397312 -156.369698 2104.040146 158 175 201
303.993464 -1051.438046 1622.443962 152 167 183
463.981295 -1059.179401 1942.649078 213 229 242
434.298658 -224.008369 2106.713486 81 98 119
119.603086 -264.209104 1459.558487 64 90 97
-481.778049 -59.378660 466.002083 224 241 250
154.802775 218.155146 1657.073593 29 38 41
421.917009 42.540100 2138.477135 68 92 114
473.717785 -1014.718628 1950.667381 219 238 245
160.985208 231.313920 1662.519073 0 12 5
477.491713 -1022.910023 1943.150902 116 126 136
477.491713 -1022.910023 1943.150902 116 126 136
146.177530 303.299785 1641.942787 103 122 137
490.607071 -1070.645714 1949.354362 142 153 167
483.901215 -984.726715 1955.779076 15 29 35
491.878080 -1252.700043 1899.322891 8 9 19
466.282415 -1015.522480 1914.164925 160 167 176
473.249340 -1023.659134 1924.355125 160 167 176
248.116779 110.674882 1777.612305 9 15 22
489.322519 -1231.451511 1885.871124 206 205 215
491.238689 -1069.717884 1933.158112 48 61 75
491.238689 -1069.717884 1933.158112 48 61 75
489.396381 -876.315975 1975.563812 168 186 193
490.070343 -1073.628998 1923.240280 170 185 204
491.867018 -994.341087 1943.153954 0 20 25
487.908411 -581.027460 2044.926071 203 223 210
491.473293 -939.545441 1953.962708 200 225 235
491.323233 -570.687294 2042.231750 65 84 75
447.802734 72.704744 2122.837830 57 89 112
487.504768 -550.739908 2030.646133 85 97 97
487.504768 -550.739908 2030.646133 85 97 97
