ply
        format ascii 1.0
        element vertex 8917
        property float x
        property float y
        property float z
        property uchar blue
        property uchar green
        property uchar red
        end_header
139.384997 -49.695823 2203.353500 147 118 103
138.533878 3.956671 2202.668762 189 154 134
101.304090 -354.255581 2532.123947 105 66 58
106.261373 -412.178183 2536.395264 147 106 121
107.121468 -109.674811 2451.552200 152 125 121
105.588925 -255.629516 2498.533630 99 113 112
111.993134 -460.521841 2558.368111 56 28 48
106.404746 -240.884423 2499.513245 93 94 108
112.020779 -396.537685 2543.192863 47 35 35
109.909368 -351.425958 2536.883545 83 56 46
113.627076 -452.538443 2561.937714 93 61 56
89.231217 390.438771 2378.351021 131 97 84
115.442252 -252.409911 2514.933777 23 23 35
118.039525 -256.073546 2509.163475 44 49 48
131.671047 -401.997089 2561.761284 99 75 83
129.582560 -254.034257 2527.433205 60 61 65
130.014253 -248.944139 2529.489136 32 27 29
141.691339 -300.808477 2516.212463 121 112 122
148.019934 -280.692339 2545.980644 90 97 100
146.150708 -245.282507 2540.527534 66 51 55
147.571623 -219.326663 2535.493469 130 127 122
150.830650 -251.890802 2541.771126 68 70 78
150.639653 -221.937037 2536.411285 63 65 73
151.053178 -219.482923 2535.066032 119 129 136
153.192508 -253.661609 2542.718124 138 150 152
152.904296 -224.219298 2537.758446 135 150 153
153.066087 -211.962104 2535.478592 34 26 27
156.744218 -253.435230 2543.994522 142 151 155
154.986084 -184.586811 2527.779007 55 49 50
155.062544 -205.939412 2537.820053 130 134 135
155.316722 -192.520428 2532.656288 63 61 73
162.112296 -348.984981 2572.742653 128 89 75
159.317386 -248.382378 2541.420364 145 161 160
156.861567 -186.641431 2532.475471 118 124 123
156.861567 -186.641431 2532.475471 118 124 123
158.943546 -196.167409 2535.450935 126 130 131
160.294580 -215.680146 2538.541412 49 53 58
161.573899 -192.354667 2537.676239 141 146 145
167.798769 -293.116069 2564.000130 116 78 66
163.009346 -148.293006 2531.214523 127 90 76
305.283284 67.705101 1474.810600 154 129 139
206.963348 -16.776595 2262.988663 160 127 112
193.126774 -323.218250 2585.573387 141 101 89
193.126774 -323.218250 2585.573387 141 101 89
192.475879 -277.023292 2576.912689 158 114 101
192.475879 -277.023292 2576.912689 158 114 101
193.106759 -275.947070 2573.871040 158 114 101
193.106759 -275.947070 2573.871040 158 114 101
209.409523 111.975694 2243.661880 64 73 77
197.996259 -257.242680 2571.071625 166 121 108
219.414544 98.862022 2236.082649 94 114 119
225.503922 -30.474621 2270.096970 38 33 64
200.337696 -220.733881 2568.315506 157 112 99
199.677479 -211.069489 2567.403984 155 106 92
213.903236 -480.464554 2626.796913 132 93 91
214.372897 -447.641945 2620.206642 196 150 132
216.206121 -466.213131 2620.945740 47 29 42
219.746494 130.593181 2238.674927 33 37 42
221.542215 104.256153 2241.393471 14 14 20
223.582411 100.748122 2240.203285 80 104 110
223.582411 100.748122 2240.203285 80 104 110
222.637057 131.744051 2238.434982 91 104 106
211.991596 -317.993450 2595.647240 201 158 139
223.367119 125.787675 2240.265083 54 63 73
226.758099 96.366996 2244.273376 17 21 26
232.764888 -30.194917 2280.444527 40 35 66
226.494002 130.481410 2239.139366 45 53 66
226.779604 133.806348 2239.892387 101 120 123
232.892752 135.960591 2240.491486 51 53 63
236.742115 92.179704 2243.666077 80 103 111
237.367797 88.668472 2242.482567 29 40 48
225.813818 -289.901757 2594.445038 74 52 70
228.384352 -324.292994 2607.378006 142 97 86
243.239856 100.523067 2251.273346 17 21 26
246.618009 103.712070 2252.929497 91 120 127
238.494396 -271.941352 2609.702492 49 40 50
197.789252 -739.979744 3136.536980 146 87 71
252.045822 97.960836 2253.337669 31 38 47
237.174296 -212.939954 2601.559067 136 86 68
244.256234 -299.928761 2612.002754 78 59 76
256.302810 -419.029331 2642.785454 186 140 123
252.695489 -309.614110 2619.813728 80 70 83
254.657745 -329.978037 2625.544548 101 76 80
261.468053 -421.992397 2646.940041 141 98 81
255.751991 -318.471122 2624.648094 150 133 130
255.751991 -318.471122 2624.648094 150 133 130
227.497363 219.376707 2497.242737 42 33 53
243.274403 92.983067 2451.616859 146 116 105
217.675829 -755.425692 3164.113235 166 109 84
253.810477 -227.307248 2634.752846 197 151 133
273.306489 -515.575457 2698.342896 145 86 66
266.729355 -348.682094 2636.648369 76 63 77
270.362687 -360.677457 2640.527344 202 159 142
236.323237 233.389616 2498.760414 29 20 41
347.496986 -80.456096 2129.771996 160 109 99
285.420346 -480.424786 2677.987862 233 178 157
281.298518 -411.627913 2657.985878 191 147 130
239.043689 -745.307541 3189.986420 147 86 72
272.269297 -224.776578 2654.932404 132 80 63
272.723007 -223.873544 2651.915932 132 80 63
289.042258 -424.981308 2663.350296 149 97 90
285.788631 -374.051356 2654.107666 118 83 70
292.100763 -513.443708 2709.401321 147 86 72
281.571054 -297.418547 2631.681061 133 94 85
281.571054 -297.418547 2631.681061 133 94 85
279.589343 -257.627773 2649.856186 21 13 14
296.758223 -440.675163 2674.119949 175 132 117
292.660332 -364.236069 2656.698799 205 158 136
259.649348 174.510860 2530.955887 159 125 112
260.876989 178.261137 2529.129410 110 67 58
295.984912 -333.355308 2653.397369 197 153 130
308.626580 -511.031246 2717.731857 146 93 72
303.268433 -362.126637 2660.768318 120 75 64
256.399679 336.481953 2529.275322 177 135 116
310.141730 -448.087502 2680.818558 60 38 43
303.943729 -323.239684 2653.422165 144 98 87
293.380642 -173.540807 2635.119820 144 88 83
298.040557 75.051224 2328.022957 168 132 116
305.664587 -314.673591 2652.703476 128 83 72
312.180567 -408.641911 2677.592659 185 141 124
311.069942 -335.400176 2663.240242 136 94 81
314.114118 -344.779444 2662.647820 166 135 120
319.620275 -415.635252 2682.685471 134 85 77
316.897941 -365.412116 2673.520470 164 127 113
315.969396 -329.690599 2662.924004 196 149 128
259.712291 502.483368 2484.364128 186 146 117
319.416428 -347.944045 2669.445229 144 129 126
283.062243 216.525388 2529.038048 97 59 54
308.766341 -210.123682 2667.988968 142 88 65
272.798824 355.224228 2520.578384 30 22 22
319.261146 -318.721795 2663.712692 193 149 132
293.209147 87.667751 2564.726257 163 125 113
293.172312 87.562501 2565.188599 163 125 113
313.617301 -617.518330 2966.869736 145 93 77
328.751302 -411.029434 2687.626076 180 137 120
312.209177 -179.385984 2658.629799 158 101 76
296.545172 82.657671 2569.467545 142 137 134
323.270917 -315.089869 2664.299202 121 78 63
297.215009 78.492975 2570.817947 61 57 76
297.215009 78.492975 2570.817947 61 57 76
296.521664 88.501292 2569.758034 144 133 135
337.207627 -326.516008 2276.738548 156 100 75
328.565836 -102.012169 2267.547989 216 174 151
328.565836 -102.012169 2267.547989 216 174 151
335.165739 -435.126781 2705.743790 183 137 120
334.117746 -413.230562 2689.910698 135 90 77
341.429949 -469.831610 2709.596252 204 159 138
304.090714 81.686622 2576.779556 110 80 75
307.700562 34.289041 2585.731506 118 72 65
296.635723 201.608729 2548.091316 181 135 117
326.422977 -246.259665 2663.663483 55 38 41
326.422977 -246.259665 2663.663483 55 38 41
312.718654 -20.469137 2634.402657 119 82 56
344.818115 -418.940973 2699.110794 142 96 85
283.553362 349.682093 2678.006744 59 35 29
285.842180 358.482909 2656.122017 60 31 26
288.699555 428.079700 2521.167183 187 142 121
288.699555 428.079700 2521.167183 187 142 121
340.957522 -291.810942 2669.988441 129 90 88
350.537133 -400.970554 2699.890900 136 91 80
287.050271 509.783602 2502.373505 124 78 71
310.291076 220.826173 2544.789696 87 54 45
324.730515 61.348492 2589.540482 118 77 68
348.735738 -259.778023 2675.334549 34 29 44
319.094586 170.762908 2565.499687 189 143 125
365.150905 -452.657127 2721.720123 110 87 102
317.349100 222.123337 2559.591484 90 55 42
356.615353 -319.717336 2688.984680 187 143 126
389.591622 233.690357 1242.881012 89 57 46
364.959908 -411.901045 2712.479019 201 151 131
324.353147 183.608496 2572.483444 117 75 63
301.215887 500.848389 2518.703461 204 135 115
301.215887 500.848389 2518.703461 204 135 115
369.883227 -404.787636 2712.801361 141 99 87
327.295971 214.892101 2564.441109 131 87 74
376.454377 -448.028898 2723.363686 167 127 109
377.681327 -452.400446 2723.461342 165 131 107
331.934333 191.723061 2569.578171 106 67 58
312.426043 490.314817 2521.137428 34 18 11
319.593716 509.464931 2520.689774 184 145 113
333.027887 402.381754 2545.657158 64 45 32
389.346170 -294.189429 2702.295303 127 73 66
369.300747 25.971597 2628.761864 86 68 81
386.788511 -184.989953 2676.364136 149 106 91
384.899020 -136.376381 2664.241982 143 99 86
350.588512 424.722672 2410.894585 49 35 23
375.690579 23.955759 2631.647301 38 30 40
373.754239 68.904108 2623.764610 191 142 126
373.754239 68.904108 2623.764610 191 142 126
395.135212 -190.367985 2683.684540 143 91 78
395.561814 -187.074304 2681.856918 197 154 135
377.821660 72.126347 2622.290611 130 87 78
368.604875 199.680614 2593.946457 175 131 114
344.924188 516.530991 2537.556839 113 72 70
411.059332 -272.803164 2712.312508 138 89 81
377.232885 204.934216 2597.205353 104 63 54
379.402018 199.651563 2589.602470 90 61 47
383.329415 191.156626 2593.862724 121 86 66
393.478990 182.089520 2604.767799 170 134 116
393.452239 242.262912 2590.645409 101 69 56
393.270373 286.933160 2583.335686 100 69 60
388.551998 375.245643 2561.836815 94 65 56
456.645679 -412.378550 2769.441605 176 136 118
402.206707 249.835753 2601.707840 180 136 119
391.008234 425.590134 2557.484627 167 126 104
406.158686 256.304502 2603.548050 104 72 59
413.289595 363.738728 2157.496452 94 65 56
414.910650 368.208981 2156.212997 171 130 107
425.257206 95.821542 2641.517830 81 70 78
427.801943 85.417897 2646.016502 128 98 97
413.691759 251.957965 2601.170921 179 136 115
411.942816 284.093547 2600.090981 171 134 112
433.308744 291.014791 2141.190720 171 134 112
434.517193 254.447746 1375.866604 58 41 38
436.278629 268.320775 1362.717819 58 41 38
440.179443 179.162776 1151.678085 166 132 119
450.473642 225.678897 1326.962471 58 41 38
470.814323 245.560098 1925.686264 171 134 112
483.645105 265.567112 1416.696835 171 134 112
470.251369 -36.558306 1546.954918 47 29 42
472.057581 -28.074604 1542.325211 191 144 130
487.103462 243.092370 1687.618065 171 134 112
497.119570 -31.478140 1540.997791 142 87 72
461.413860 169.793999 1269.500637 125 111 135
488.848019 253.679705 1558.559132 171 134 112
495.696640 -29.029799 1589.184666 142 87 72
495.696640 -29.029799 1589.184666 142 87 72
495.249557 -24.952891 1601.695824 142 87 72
500.684881 -2.662658 1451.809692 145 83 72
497.913456 227.664804 1608.514023 171 134 112
494.463778 260.191083 1514.975262 172 130 111
489.563608 105.098379 1426.616478 209 166 147
481.161165 192.607558 1348.298740 158 120 102
498.468447 249.469447 1426.351452 171 134 112
502.110863 -50.085038 1573.302937 146 93 72
499.159384 253.702235 1328.354454 171 134 112
509.120655 10.238475 1516.996574 119 73 62
491.019297 228.772807 1311.841869 24 19 21
509.912586 12.303726 1515.263367 178 142 118
511.242819 151.638949 1161.229897 53 34 26
496.353579 225.216365 1288.084698 37 17 12
509.777689 43.482858 1485.846138 126 83 68
498.622227 227.784491 1355.760765 188 145 118
497.692823 189.308035 1337.004757 168 125 108
498.057699 186.329985 1340.104580 169 128 113
516.599607 109.641719 1262.556076 133 85 79
517.484856 108.470297 1263.041782 133 90 81
499.388838 191.358280 1333.502293 93 60 51
497.147799 220.794106 1311.950684 32 21 17
503.944731 149.174285 1374.724674 168 125 110
498.804617 222.720337 1304.618931 49 35 23
526.332283 42.524752 1488.634777 151 97 86
526.332283 42.524752 1488.634777 151 97 86
505.406094 219.406366 1241.604137 37 17 12
507.818890 222.120142 1293.861008 188 145 118
512.884474 187.198067 1323.082542 116 71 67
488.856888 229.150295 1129.639339 197 153 136
488.856888 229.150295 1129.639339 197 153 136
-870.120811 52.209985 1854.610443 132 92 80
-851.372719 375.526237 1840.707588 95 66 52
-873.146725 72.370380 1857.199860 196 148 130
-864.211464 60.959440 1859.969139 99 69 58
-852.126884 258.262944 1855.339241 190 146 129
-865.695000 48.444787 1867.625809 178 142 132
980.939388 238.119483 925.036621 179 138 129
-832.154083 346.663857 1852.624512 109 67 62
-881.677818 -91.932392 1887.882233 135 93 81
-864.558697 305.939674 1881.530952 207 165 146
-871.582413 -69.202846 1889.575958 130 85 74
-838.566208 230.444789 1867.253304 96 64 51
2216.264915 532.699919 88.143408 62 41 49
-864.273643 -73.817772 1892.356491 201 155 137
-950.850487 -684.698486 1957.759476 119 86 77
-840.371990 180.102372 1878.521538 99 70 55
-895.325947 -328.589177 1923.667145 122 77 64
-1612.106133 236.819124 2334.998322 114 74 62
-1839.948082 226.971269 2468.064880 77 48 43
-826.595116 228.043723 1882.530594 99 64 44
-827.594566 206.487584 1886.939812 113 68 47
-1558.738995 96.304244 2332.767296 53 39 33
-821.122742 58.862764 1890.356445 127 84 65
-792.559958 389.737606 1867.348480 150 100 88
-842.016029 -64.290512 1906.496811 124 78 60
937.898540 223.225665 945.007706 216 173 154
-787.442398 383.091259 1870.697594 88 29 13
-832.622242 -70.576674 1908.741951 93 58 48
-810.887241 198.834407 1890.916824 101 68 53
-883.748627 -440.224409 1952.407837 156 107 93
935.599899 251.884580 940.760899 66 52 86
-875.345135 -428.185511 1953.788567 150 104 86
-774.860573 334.739113 1882.080460 89 58 43
-814.915657 -64.347446 1917.398071 180 137 122
-865.686893 -413.425112 1958.705521 79 55 67
-856.438828 -422.200441 1962.624359 184 140 123
-856.438828 -422.200441 1962.624359 184 140 123
-1402.366543 -260.850215 2311.258888 77 46 45
-858.370399 -442.533493 1966.893387 109 74 61
-858.370399 -442.533493 1966.893387 109 74 61
-855.519485 -397.853017 1964.221954 63 40 54
-858.991909 -454.844856 1968.558502 96 61 47
-787.129068 235.867906 1906.642914 109 76 60
-784.548616 67.005765 1910.149956 115 73 66
-826.787567 -128.614712 1943.332672 219 176 161
-869.550514 -563.889933 1981.642342 201 152 136
-821.610260 -122.904062 1940.272522 155 107 101
-871.695423 -585.357809 1984.103584 177 138 124
-852.632999 -420.168352 1968.677330 124 91 88
-746.457195 397.847414 1882.088280 200 157 142
-746.457195 397.847414 1882.088280 200 157 142
-871.550846 -595.335722 1987.991714 179 140 126
-853.992844 -452.581644 1973.070335 179 137 125
-785.445404 35.293686 1917.357826 131 87 74
-850.986290 -391.278458 1971.197891 38 34 46
-784.193087 65.252185 1916.992950 183 144 129
-864.332485 -555.509377 1984.445953 139 93 82
-864.332485 -555.509377 1984.445953 139 93 82
-867.959118 -585.758924 1987.729073 62 35 39
-847.592449 -420.984030 1970.475960 113 81 76
-866.322708 -574.037075 1988.856316 98 60 58
-866.322708 -574.037075 1988.856316 98 60 58
-860.266113 -538.965845 1984.613419 195 150 139
-860.266113 -538.965845 1984.613419 195 150 139
757.030678 199.946415 1046.289062 62 31 28
-788.166904 -38.128048 1929.095840 90 77 91
-788.451290 -35.175994 1929.482079 140 133 138
-842.543030 -449.825525 1977.043724 187 143 126
-789.227247 -45.135283 1932.113838 74 74 86
-840.590954 -427.618170 1976.011658 129 94 80
2370.163345 588.760233 -123.051906 213 170 155
-766.179371 100.607681 1914.684677 130 89 80
291.711617 157.626665 1319.550323 77 46 45
-278.149223 274.128580 1603.413010 107 65 42
-838.956547 -416.441059 1977.151299 164 134 133
364.353180 111.130714 1312.053967 105 109 127
-833.630943 -421.202326 1976.902390 106 74 79
-767.141533 215.477729 1917.311287 208 167 145
-766.064167 233.483505 1917.708588 117 75 52
-831.712723 -426.716566 1981.071854 111 87 89
2850.844383 1174.701500 -248.431015 192 142 130
2589.690590 873.314476 -302.957630 233 187 169
-831.105042 -438.336754 1982.874680 180 152 145
-780.025530 -46.647263 1939.100456 198 156 133
-828.471088 -434.127092 1983.238983 91 64 73
-769.064379 138.704062 1928.470802 53 39 33
-809.411716 -159.937489 1963.845253 90 54 46
809.754181 199.480939 1015.287018 95 63 50
-776.683903 -52.201593 1941.067314 136 91 77
-759.049988 62.724185 1926.802635 127 85 72
-760.402822 50.349551 1928.556824 184 141 124
774.831295 204.345846 1035.835838 107 64 43
803.865051 201.736784 1018.501568 93 64 49
-822.606087 -436.398506 1988.505554 178 137 128
-819.577599 -417.900085 1987.706566 133 88 77
-822.840691 -454.600239 1992.598152 147 122 126
-753.271961 71.327281 1930.749893 142 98 81
-853.015041 -640.186310 2018.717003 108 82 88
-413.028860 155.657399 1702.560425 75 48 34
-819.611931 -440.803337 1991.390038 125 82 67
-819.611931 -440.803337 1991.390038 125 82 67
-752.879620 64.895743 1933.099747 132 88 71
-825.272179 -493.165016 1999.806786 110 72 60
-815.705109 -444.151068 1994.449043 196 152 135
-857.400799 -643.993235 2031.266403 203 159 142
-704.218102 389.723563 1898.018837 183 139 122
702.592278 193.659472 1080.139446 95 63 50
699.510336 193.221533 1082.035351 95 63 50
-815.580654 -528.066635 2007.808304 150 105 92
1113.481426 308.919430 688.553238 217 173 156
-807.676411 -465.779400 2003.626442 139 94 83
-744.222832 42.251199 1944.276428 186 141 130
-808.463192 -469.371891 2004.986572 164 135 131
-802.849770 -438.947821 2001.070786 134 92 79
-814.564991 -377.373791 2009.455490 122 77 64
-801.630783 -456.781244 2004.889679 191 147 130
-791.431284 -292.666578 1994.340706 173 125 97
-791.431284 -292.666578 1994.340706 173 125 97
-748.759747 -57.389653 1957.831001 179 138 123
-800.656700 -488.926220 2012.280273 167 132 119
-456.232691 -49.458829 1759.568787 219 176 161
-797.115660 -491.745329 2013.209915 123 83 71
1107.127666 182.288289 683.912325 96 64 58
-702.486515 252.101827 1929.813385 113 77 67
-798.187494 -541.742039 2026.448822 134 92 80
-797.251081 -541.264963 2026.003265 134 92 80
-794.784641 -539.997864 2024.839020 134 92 80
-700.908375 198.379683 1937.051964 191 148 133
-746.012688 -112.538004 1980.410194 197 153 140
-775.077438 -413.727999 2012.553215 127 88 79
-775.077438 -413.727999 2012.553215 127 88 79
-701.624680 207.347393 1938.669586 109 73 63
-713.645983 78.230613 1952.801514 196 152 135
-783.974218 -491.788387 2025.743866 119 80 65
-697.522736 140.832376 1942.722702 180 134 123
-725.930166 -52.545565 1974.427223 138 95 80
-703.139162 54.203659 1956.551933 105 73 67
-700.097704 123.207510 1952.240944 199 154 133
-779.460955 -523.450279 2033.579254 214 169 155
-703.442907 91.019839 1957.284737 195 149 132
-778.332615 -526.142979 2034.847260 171 120 104
-764.794779 -438.319635 2023.727798 118 77 68
-664.542103 337.112522 1928.071785 151 115 107
-762.354326 -449.262619 2029.604530 125 84 69
-760.596895 -437.024689 2029.889488 139 97 78
-714.703178 -90.981728 1983.584595 119 99 112
-768.382502 -532.742691 2042.644882 144 98 81
-750.953388 -418.560982 2031.838608 110 80 85
-679.576445 160.211492 1957.371902 186 147 132
-756.041765 -487.975359 2041.305733 204 161 142
-744.845867 -380.362391 2034.716988 54 44 56
-788.779879 -665.973711 2079.787445 162 112 90
-674.976015 164.372206 1963.011360 103 74 67
-672.160482 164.353073 1961.406517 103 74 67
-746.511173 -449.054146 2042.427254 187 144 125
-749.534559 -524.588633 2048.859787 187 143 130
-671.486616 159.041965 1967.221260 152 117 104
-671.486616 159.041965 1967.221260 152 117 104
3014.373589 1229.935932 -846.675873 81 58 73
1339.948750 594.970226 474.412680 220 171 155
-734.156084 -377.557588 2039.163208 150 126 136
-673.295879 45.447969 1982.316208 113 76 62
-632.787943 354.523659 1944.303703 185 140 126
-712.990189 -439.404869 2057.954407 122 82 70
-696.681738 -317.461467 2042.988586 166 117 101
-715.280581 -519.001007 2070.231247 137 91 83
-623.951101 298.999000 1964.678955 148 118 107
-713.289261 -541.056490 2078.958702 143 97 79
-636.302233 124.669313 1986.998558 107 72 68
-708.554411 -566.300106 2080.031967 46 26 38
-629.617357 214.286089 1980.373764 102 71 62
-706.904078 -576.244593 2081.703758 120 88 93
-639.855433 52.143109 2002.384377 106 65 56
-629.958344 124.763143 1997.524452 109 77 72
-642.026138 0.065612 2014.102364 106 70 62
-637.125206 -6.515140 2017.696381 61 51 67
-637.125206 -6.515140 2017.696381 61 51 67
-637.793779 -2.886796 2018.284798 178 143 139
-635.268545 -18.403822 2019.015694 136 135 137
-589.641380 351.982069 1969.014168 97 67 62
-629.376507 -24.008682 2025.753784 42 38 63
-639.865875 -44.937086 2040.779114 94 63 66
-587.084675 263.159847 1984.538651 105 73 67
-624.299431 -19.491619 2030.974579 146 142 147
-583.148956 321.717954 1983.274841 108 71 63
-590.789175 174.586177 2003.886414 108 76 71
-625.295782 -169.288206 2056.368828 107 75 76
-625.295782 -169.288206 2056.368828 107 75 76
-589.085627 171.319890 2010.284424 193 152 137
-619.876432 -355.773616 2096.372986 151 120 119
2748.637581 -80.763155 -802.047825 134 105 96
-307.665253 238.815022 1814.467621 108 76 71
-536.371517 275.997949 2023.829269 185 145 126
-545.263910 105.531490 2050.284195 187 142 128
-545.263910 105.531490 2050.284195 187 142 128
-540.483475 134.711671 2051.427650 106 76 65
-541.863298 -5.252887 2073.983002 151 136 134
-531.986475 -43.015355 2085.563087 127 94 85
-551.942968 -301.192856 2126.640320 189 147 135
-497.921658 326.076007 2031.778908 180 137 120
-491.742039 363.073897 2031.016731 95 66 61
-525.416327 -115.203989 2105.979919 122 91 98
-488.750029 357.416916 2035.200500 151 118 103
-493.680763 273.577952 2050.655746 103 71 65
-499.372673 146.998847 2067.998505 189 144 130
-471.894884 371.270156 2038.308525 178 136 117
-464.881134 450.758028 2030.957031 168 127 112
-470.752001 322.176695 2050.172234 99 69 64
-478.227234 193.420577 2071.281052 183 140 123
-472.748852 238.772273 2065.477562 179 137 118
-472.829771 231.992126 2067.779160 97 68 64
-474.328327 80.098796 2099.476242 121 79 67
-464.118385 97.607845 2091.442871 134 99 86
-449.003935 434.371281 2058.580780 86 68 91
-489.223003 -353.660750 2175.834656 208 162 144
-466.546440 -24.705242 2125.771904 134 89 78
-466.119719 -45.162180 2128.128242 133 94 85
-481.402349 -332.972026 2175.959778 166 120 103
-481.274414 -352.664995 2178.674316 163 116 102
-480.078506 -361.657166 2179.378319 164 114 102
-459.924030 -30.311209 2129.615021 193 152 137
-449.440861 156.141198 2104.177666 62 44 57
-447.289038 308.961201 2096.290398 95 61 45
-472.989655 -385.425353 2191.955185 158 109 93
-471.705914 -400.540257 2194.718170 204 159 145
-473.657608 -516.173124 2215.023613 130 88 75
-460.835838 -419.347477 2203.799248 177 138 123
-465.089273 -541.450500 2222.118568 61 30 37
-454.471111 -399.251819 2203.791618 115 75 63
-427.371216 82.775265 2126.854134 184 143 128
-457.415962 -496.965075 2220.407486 198 153 139
-451.561642 -408.779764 2208.561325 180 141 127
-428.245878 -44.799682 2151.408005 179 135 122
1401.313591 109.247148 144.130623 62 28 28
-518.887043 -215.121293 2260.267830 147 97 75
-452.242470 -249.003339 2199.777031 141 101 96
1432.712173 617.533827 57.560247 47 33 51
-452.214479 -261.648583 2203.829384 219 176 157
-445.786285 -348.358798 2207.895470 50 41 54
-445.786285 -348.358798 2207.895470 50 41 54
-422.218513 271.644306 2118.330383 84 47 33
-446.207285 -488.781929 2224.466324 142 94 88
-408.069324 423.973942 2090.273857 80 52 41
-414.191198 103.233039 2131.963158 194 151 134
-419.585514 -17.102225 2150.839424 133 89 82
-425.220346 176.588297 2138.910866 80 51 37
-442.406368 -506.950092 2230.117798 144 103 88
-439.233971 -486.659336 2228.160858 208 162 145
-433.220673 -387.394476 2214.541245 124 95 90
-432.537556 -390.790224 2215.156364 183 143 131
-434.045124 -252.044368 2204.714775 227 182 169
-925.797176 -338.844848 2753.040314 145 93 76
-426.599073 -391.253400 2217.538643 92 68 80
247.725558 101.713228 1403.558445 155 107 101
-401.246595 113.312328 2138.009262 110 74 64
-401.458883 83.907473 2143.150711 111 73 61
-424.005747 -403.391981 2222.094154 126 121 130
-423.427820 -87.238300 2187.906075 92 49 32
-423.427820 -87.238300 2187.906075 92 49 32
-404.624176 -11.626631 2159.295082 133 87 79
-425.107336 -328.810143 2217.936707 93 74 71
-393.447042 434.968853 2100.982475 185 141 128
-423.674917 -460.734367 2233.273125 197 155 136
-420.134258 -397.317147 2223.703003 175 146 141
-704.850531 -455.432606 2566.954613 54 30 30
-421.128702 -489.936590 2239.485168 194 149 135
-416.646433 -375.108457 2222.468567 137 92 79
-399.965858 -51.931143 2169.796753 114 76 71
-398.955679 -47.874251 2170.148087 123 85 73
-418.094063 -486.500978 2241.642189 150 103 89
-413.942385 -443.922329 2234.117508 160 124 116
-414.863777 -488.842344 2242.831802 191 149 136
-694.659281 -454.104233 2571.910095 61 29 24
-393.619156 -6.205519 2167.077255 185 140 129
-410.848570 -440.596390 2236.848640 118 75 66
-409.440231 -404.163361 2232.901192 153 110 101
-409.440231 -404.163361 2232.901192 153 110 101
-387.824988 317.388368 2133.262444 76 45 36
-385.928679 9.503066 2167.099380 134 135 139
-403.400803 -415.368557 2236.359596 138 96 89
1431.048679 577.041435 -3.812448 164 110 87
-381.488943 74.060309 2155.864143 175 134 119
-383.503437 344.515252 2128.608513 218 152 133
261.799574 132.335103 1398.801327 160 129 126
-399.527001 -417.700195 2239.189720 200 157 142
-376.282167 109.791529 2153.349876 179 136 119
1421.299839 545.577908 5.868015 139 86 65
-376.862931 107.963634 2154.338264 181 136 122
-397.160053 -373.259568 2234.717751 124 89 76
1424.162769 563.459206 -2.123540 172 114 92
-371.897936 137.168348 2149.533844 97 68 61
-398.927021 -242.327547 2225.829124 154 108 100
-394.987941 -420.707989 2242.149925 135 91 84
-377.313566 326.007986 2134.539986 224 152 135
-377.134037 -10.196128 2176.232147 140 94 83
-403.258801 -335.131168 2246.025276 32 18 20
-394.519901 -499.093771 2257.282257 146 100 89
-368.708372 116.936755 2154.450607 104 69 56
1418.174458 538.404846 -2.227891 226 174 157
1418.174458 538.404846 -2.227891 226 174 157
-371.572876 345.166349 2133.508492 217 148 129
-388.872027 -426.580811 2247.510338 128 80 74
-367.679405 89.793962 2162.347984 117 82 69
-369.804692 353.155398 2133.979034 192 153 131
-368.557739 349.105000 2135.377693 65 19 12
-390.114903 -241.697955 2233.027267 159 110 100
-391.370392 -251.438642 2236.163902 163 108 95
-391.370392 -251.438642 2236.163902 163 108 95
-385.276365 -440.669346 2252.155495 215 169 152
1510.582638 901.495552 -191.510463 144 90 65
-362.698674 109.976590 2162.376785 169 130 115
-381.120610 -427.828312 2252.511215 182 146 130
-365.826011 313.322115 2145.109940 195 155 136
-174.419558 252.898240 1923.170090 193 151 132
-377.840900 -429.080296 2253.777122 101 61 66
-378.292036 -449.095392 2258.532715 131 89 76
-357.492638 102.837789 2166.478157 106 65 56
-374.175715 -392.609119 2248.480988 196 147 131
-372.082591 -368.515182 2245.839500 121 86 73
1421.354485 577.795458 -39.541146 173 117 92
-369.355893 -419.223881 2256.738091 195 152 137
-368.262863 -427.422237 2257.698631 81 62 81
-371.086025 -482.470512 2272.035599 205 156 142
-366.394639 -408.780909 2258.624458 120 82 70
-386.435699 -599.135399 2307.389832 179 122 101
-349.187398 105.859065 2173.870277 164 129 116
-360.871387 -396.757555 2259.166718 134 91 82
-360.443521 -409.764624 2261.065292 201 159 146
-360.443521 -409.764624 2261.065292 201 159 146
-368.450594 -254.298234 2251.407623 185 127 108
-358.588219 -377.596426 2255.368233 193 148 134
-183.624780 -28.580979 1991.945267 92 49 32
-357.239604 -364.082813 2253.239059 184 139 128
-358.669710 -418.671989 2263.553429 78 58 71
-379.866219 -315.445614 2277.244186 54 30 30
1420.759964 569.147587 -65.717483 202 153 145
982.388878 347.982144 691.554832 166 124 117
-355.709410 -385.412455 2259.166718 209 166 147
-355.709410 -385.412455 2259.166718 209 166 147
-356.813598 -410.772133 2263.883209 139 121 128
-355.037594 -385.064793 2258.578682 209 166 147
-355.037594 -385.064793 2258.578682 209 166 147
-369.718504 -297.204137 2266.781616 176 126 106
222.521448 -53.509194 1482.328510 112 76 66
-351.000810 -383.184409 2259.726906 206 161 140
-351.000810 -383.184409 2259.726906 206 161 140
-352.269602 -404.329729 2264.974594 89 62 66
-336.245203 80.874944 2184.026527 176 136 124
-374.233365 -315.173006 2283.755875 61 29 24
1429.984283 642.266941 -103.680086 49 35 37
-347.889304 -391.749167 2264.642143 91 59 76
-348.497486 -458.533382 2277.271271 173 125 113
1335.434628 146.097958 107.644629 180 137 120
-344.834089 -382.419491 2264.902115 104 81 85
-337.361264 -484.314394 2287.865257 161 113 101
-331.860948 -369.926810 2271.003532 188 152 136
-334.977126 -337.539792 2273.530388 76 62 68
-329.668450 -375.626874 2272.697830 157 112 99
-329.668450 -375.626874 2272.697830 157 112 99
-333.146882 -481.567764 2292.312813 154 107 93
-324.588037 -338.614607 2270.809364 81 58 73
-324.588037 -338.614607 2270.809364 81 58 73
-301.403189 415.954065 2137.068176 161 126 113
-301.635361 345.563293 2152.200699 163 127 111
-305.190325 105.936980 2197.857285 144 112 99
-314.924192 -377.202249 2281.628036 114 69 58
283.191442 179.332781 1411.546612 151 105 94
237.235403 -34.561718 1489.471054 143 99 82
868.364811 292.116714 938.038063 158 136 138
565.582180 237.956595 1198.839474 62 43 60
-310.114980 -396.476388 2288.324547 181 142 127
-312.190914 -494.752264 2309.086990 200 157 142
-172.034800 22.626819 2049.138069 173 137 127
-172.034800 22.626819 2049.138069 173 137 127
228.032923 -83.282405 1511.083508 143 97 79
-301.451707 -526.767635 2319.865608 188 149 134
-300.437927 -526.376677 2318.677139 188 149 134
-292.044115 -357.736802 2291.728973 176 130 113
-289.516950 -266.465831 2277.283287 165 117 105
-285.306120 -317.502689 2287.695312 173 124 110
-285.306120 -317.502689 2287.695312 173 124 110
-285.237193 -377.580667 2301.181030 161 116 105
-285.237193 -377.580667 2301.181030 161 116 105
-253.848457 -194.558358 2285.447693 125 85 73
-222.615576 -271.832585 2262.659264 118 83 70
-249.375653 -292.048049 2304.253578 138 137 139
-249.209595 -268.381691 2300.285912 165 184 187
-249.130368 -297.201419 2305.751801 140 132 132
-247.969270 -259.054136 2298.021126 135 144 147
-245.359015 -229.987216 2295.034218 56 45 48
-245.067358 -229.977369 2294.685173 56 45 48
-250.615835 -566.063023 2359.051895 177 138 129
-242.693686 -287.720752 2303.395844 59 58 68
-242.827249 -231.346059 2296.617126 121 124 128
-242.508721 -242.448711 2298.298454 140 147 150
-243.159151 -238.787270 2298.670387 142 151 154
-239.650941 -266.581273 2300.691032 83 86 94
-239.650941 -266.581273 2300.691032 83 86 94
-240.865064 -284.612513 2309.982681 45 34 36
-236.682105 -263.825917 2302.828789 75 84 93
-236.994815 -253.909111 2302.479935 45 34 36
-237.356210 -238.795662 2303.131294 86 79 82
-90.004486 52.976745 2052.386093 48 55 64
-90.790540 98.817533 2050.577927 107 124 133
-86.161923 95.458317 2053.666115 64 69 72
-84.674633 102.923703 2053.317070 107 124 127
-214.545822 -284.244013 2325.777817 113 116 121
-213.368726 -288.995957 2327.026749 104 116 118
-80.855495 79.889095 2057.958412 64 85 93
-209.960032 -279.361582 2325.351524 124 133 142
-209.832358 -294.953823 2328.203773 150 167 170
-81.691724 91.210943 2059.393692 58 67 76
-81.156415 97.410285 2057.898712 106 115 118
-208.212042 -277.051568 2332.105446 86 95 104
-78.009224 96.757537 2059.631729 70 69 79
-78.867042 92.598993 2061.807632 109 121 131
-77.998489 98.319834 2059.697723 52 59 68
-77.928799 102.474523 2059.319687 59 65 76
-77.928799 102.474523 2059.319687 59 65 76
-76.883543 100.367630 2059.867859 95 114 119
-201.470780 -421.870613 2353.706741 135 100 120
-72.014201 55.292964 2062.690353 42 47 56
-76.391566 104.726946 2061.426353 99 118 123
-72.527206 67.567235 2066.952896 68 84 96
-73.587549 95.127779 2064.633179 97 117 122
-73.587549 95.127779 2064.633179 97 117 122
-196.007431 -285.335732 2329.955673 39 38 48
-199.146163 -496.859837 2374.513054 81 51 46
-72.272992 72.688836 2067.582512 22 28 35
-71.261251 72.793370 2066.575432 22 28 35
-193.336630 -298.472333 2330.026817 96 74 76
-193.952668 -439.590073 2359.255219 70 44 67
-191.667235 -265.072680 2324.959946 76 73 89
-69.422805 66.088748 2069.285393 78 90 100
-67.218488 -81.280422 2094.283485 106 96 126
-72.993231 103.924894 2072.255325 81 91 98
-189.873278 -440.430689 2362.605858 136 131 140
-70.317352 -61.065149 2100.304222 79 65 77
-70.317352 -61.065149 2100.304222 79 65 77
-188.807988 -446.907282 2369.291306 107 116 126
-5.240448 339.532185 1952.241135 56 36 35
-65.129524 385.416341 2018.173409 56 36 35
-185.243475 -405.193520 2361.350250 60 42 41
-183.470762 -450.149727 2370.819473 98 106 113
-179.265559 -277.439737 2333.243942 167 177 187
-68.121576 72.946084 2087.004471 60 72 82
-175.294876 -271.781158 2332.711220 106 112 119
-63.820177 62.038743 2086.032486 19 25 30
-174.072206 -497.011232 2377.315331 221 178 163
-172.879505 -279.390931 2335.843849 162 170 177
-171.229279 -503.879833 2377.491379 87 42 68
-172.424316 -286.619592 2336.942482 70 78 85
-173.407578 -510.414267 2381.949615 80 50 75
-179.604220 350.406361 2225.483513 134 105 96
-152.266467 391.031122 2183.371353 134 105 96
-172.790468 -455.555296 2375.387001 193 153 141
-166.080678 -289.519048 2336.998940 68 71 76
-164.325643 -430.060625 2365.336418 240 191 175
-174.857855 321.429062 2233.973312 65 44 43
-174.772787 409.684706 2217.284966 68 46 41
-171.891034 -396.467972 2374.215698 138 102 96
-161.504519 -488.561964 2379.931068 36 27 23
-171.641934 226.820517 2254.297447 102 76 70
-171.866333 315.787935 2236.879158 121 91 80
-162.131917 -445.002556 2373.304939 122 108 110
-161.332381 -237.600589 2331.678772 111 83 83
-163.080180 -471.483994 2381.507111 221 173 161
-160.388148 -500.652456 2383.593178 89 48 26
-169.484305 405.913210 2221.747780 133 101 88
-159.254205 -420.941687 2373.569107 147 146 150
-157.396209 -208.846164 2328.781319 165 143 145
-160.336494 -372.027397 2370.860672 187 152 139
-156.821311 -440.746784 2379.739761 132 92 87
-154.239094 -272.750306 2343.203735 79 88 97
-156.106210 -421.926641 2377.812386 131 134 139
-149.890268 -487.817144 2381.251144 177 148 141
-150.008690 -480.516148 2381.958389 204 165 151
-148.655057 -354.932475 2356.643295 62 41 50
-148.655057 -354.932475 2356.643295 62 41 50
-155.354345 -367.439270 2371.559143 72 51 50
-151.779246 -406.747198 2386.237335 162 169 166
-145.599353 -274.096704 2348.620033 146 163 166
-149.901450 -414.717674 2386.129761 53 46 59
-140.259624 -474.608898 2383.676147 138 106 100
-149.807417 -429.689741 2392.989540 92 47 36
-149.701393 -450.269699 2398.312759 108 70 65
-126.897919 -332.224631 2334.426117 136 123 131
-140.273583 -288.371897 2351.889610 90 101 105
-140.273583 -288.371897 2351.889610 90 101 105
-145.061028 -402.132416 2390.446854 89 46 37
-140.732813 -378.435278 2379.867554 167 189 195
-145.736241 -268.507481 2365.298843 50 59 69
-145.290029 -275.238967 2366.323662 93 102 112
-145.137131 -413.306046 2397.301483 180 140 128
-134.536481 -477.760267 2392.399406 61 35 29
-142.677176 -281.459260 2366.949081 63 75 79
-144.288504 -263.407946 2366.057396 114 128 140
-141.191649 -283.990192 2367.613411 41 51 58
-131.083643 -312.135768 2358.488464 43 37 60
-130.072296 -459.318161 2405.383873 141 114 110
-131.785119 -447.638035 2407.150078 153 121 110
-129.081881 -496.483564 2420.158768 160 118 125
-124.297655 -462.415886 2403.863144 97 79 80
-126.501095 -406.011009 2399.286461 58 55 57
-124.410629 -372.441697 2388.795662 149 144 145
-130.712390 -250.933051 2373.336029 70 53 62
-123.658311 -410.010576 2398.563194 33 26 29
-132.156408 -97.372806 2350.597572 185 148 134
-121.256518 -452.137852 2408.488655 45 42 44
-121.256518 -452.137852 2408.488655 45 42 44
-118.460274 -140.878916 2341.187477 145 128 141
-121.910143 -400.346518 2400.481606 50 37 39
-117.028654 -460.389614 2405.621910 137 149 151
-126.742315 -119.007170 2353.863716 158 126 113
-119.339585 -391.201401 2396.596146 96 101 104
-127.635252 -100.509381 2353.635979 100 65 62
-118.338037 -410.080290 2403.286934 112 120 127
-118.328846 -362.309265 2396.399498 110 113 128
-118.328249 -352.568150 2394.647598 73 84 92
-126.370966 -182.800210 2375.858688 99 75 83
-113.388526 -431.420517 2408.947754 117 125 138
-119.305110 -281.797218 2387.385559 90 100 100
-113.530505 -428.115892 2409.780693 137 143 148
-113.720846 -423.995304 2409.796524 142 145 153
-112.552607 -379.424715 2397.599792 85 87 88
-112.552607 -379.424715 2397.599792 85 87 88
-110.240543 -340.690327 2386.748505 61 47 48
-110.240543 -340.690327 2386.748505 61 47 48
-106.882775 -466.211081 2410.366631 46 25 34
-111.851740 -406.906700 2407.927895 145 149 154
-106.630003 -454.836750 2410.457230 74 71 86
-107.168210 -431.876898 2411.387062 105 113 126
-108.394051 -381.040955 2403.208923 78 68 81
-103.965342 -440.723944 2410.129547 101 111 118
-265.372157 -177.762830 2663.812256 230 180 158
-102.307189 -469.874096 2415.646172 63 38 42
-122.696650 -211.289907 2394.646072 183 143 131
-114.081204 -118.979025 2363.140106 40 36 47
-100.457680 -406.296349 2416.002846 117 117 129
-114.991105 -216.512918 2398.811722 220 178 159
-249.437308 -184.514534 2662.302589 150 118 107
-96.975428 -413.434839 2416.372299 144 126 143
-99.056572 -359.432507 2410.439682 125 133 133
-99.653780 -294.014096 2396.325111 59 59 71
-95.835292 -409.791088 2417.567825 155 148 153
-95.304066 -344.416547 2404.580498 57 43 47
-109.477484 -249.903226 2410.390854 170 133 119
-108.698022 -246.254635 2409.570312 99 54 50
-93.113208 -353.001356 2407.728958 132 149 152
-92.531884 -362.240887 2411.377716 95 91 103
-103.660297 -200.280905 2397.912025 148 109 100
-105.311513 -237.051153 2416.558075 88 50 38
-83.422953 -445.717478 2425.503159 177 135 123
-88.948470 -356.523299 2414.843559 114 126 130
-82.520288 -429.327345 2420.808983 168 171 176
-85.189247 -346.646214 2407.527161 75 68 73
-80.653560 -494.518232 2435.309029 139 109 128
-80.653560 -494.518232 2435.309029 139 109 128
-104.251790 -266.797900 2426.075172 42 24 23
-85.292524 -302.876735 2404.626083 106 110 115
-78.386378 -444.927311 2428.110123 183 151 145
-80.925697 -397.748995 2422.163391 118 110 111
-79.456496 -369.965267 2420.644760 69 67 79
-81.203794 -300.067449 2408.375168 153 157 162
-78.248727 -362.801075 2419.933701 141 169 176
-71.747935 -426.979589 2426.118851 115 95 100
-91.081268 -231.185150 2416.335106 127 78 64
-91.081268 -231.185150 2416.335106 127 78 64
-90.580893 -230.609584 2415.863609 127 78 64
-74.690700 -393.619514 2428.157616 86 59 68
-72.175705 -405.976295 2426.227188 92 73 100
-84.863687 -269.719982 2423.698616 43 25 24
-62.683648 -474.249840 2431.096458 139 151 153
-72.312164 -383.801413 2429.155540 99 101 102
-72.312164 -383.801413 2429.155540 99 101 102
-66.659689 -447.486162 2436.995316 57 52 54
-66.659689 -447.486162 2436.995316 57 52 54
-69.500548 -386.612511 2428.634834 45 42 51
-68.693018 -351.767564 2422.171021 72 62 62
-67.989212 -351.383710 2421.236801 72 62 62
-67.469394 -398.372936 2432.752419 102 66 60
-66.187906 -400.817060 2433.162689 168 124 100
-391.351485 376.839113 2897.506332 85 76 79
-82.142055 -223.429203 2421.400833 206 161 148
-65.451825 -348.295474 2420.175171 77 67 80
-65.451825 -348.295474 2420.175171 77 67 80
-66.059911 -398.238206 2434.985542 95 64 65
-63.846558 -320.735455 2412.964058 82 95 103
-64.288676 -406.460524 2435.931396 159 126 110
-64.241773 -373.895264 2427.721214 47 42 51
-63.145024 -323.529840 2414.233398 29 29 47
-62.776810 -323.415399 2413.698196 29 29 47
-79.616100 -229.282141 2423.483086 164 111 101
-61.956906 -378.780293 2426.620865 134 143 146
-63.679183 -402.291012 2436.216736 96 67 70
-79.592377 -262.648296 2433.126640 127 76 66
-61.453605 -431.038570 2441.370964 110 85 111
-54.048425 -491.736269 2443.008423 121 93 113
-73.415703 -209.377360 2413.671684 213 172 157
-75.413382 -258.271146 2433.253670 196 153 138
-59.820890 -354.154587 2429.349327 71 60 63
-57.082009 -383.922529 2431.416512 116 125 134
-59.007865 -364.815688 2430.853844 109 121 127
-57.012933 -415.748501 2441.839027 126 132 137
-50.497580 -468.999243 2448.642921 47 50 58
-43.702272 -498.785925 2443.927956 139 94 83
-72.282350 -172.958338 2417.477417 159 110 102
-46.238276 -483.407497 2446.982002 100 80 93
-56.366765 -302.669168 2424.599266 107 97 113
-46.869573 -405.995178 2437.317467 86 92 97
-48.623472 -358.833814 2437.564087 179 143 127
-71.153152 -119.279850 2424.651909 73 63 75
-40.791160 -327.065516 2415.405083 94 97 101
-48.137656 -371.996617 2442.826080 74 60 62
-44.749159 -439.332199 2453.963852 159 170 174
-31.442660 -508.457470 2447.413445 195 167 156
-39.093965 -326.470828 2416.528702 40 46 51
-43.479156 -424.472427 2454.264641 62 55 62
-60.091376 -169.033420 2421.040726 180 130 118
-43.966341 -313.535881 2426.921082 134 107 97
-43.672645 -375.149941 2446.423340 127 97 92
-44.838145 -296.450114 2430.090141 60 39 41
-55.864233 -232.675409 2436.256790 205 161 144
-55.864233 -232.675409 2436.256790 205 161 144
-45.052338 -293.915963 2432.301521 82 83 93
-51.847172 -219.428086 2426.752090 131 95 89
-31.993535 -480.208921 2457.089996 125 101 111
-38.771927 -315.685511 2426.576233 153 120 111
-38.999498 -315.988350 2428.417778 141 105 97
-40.220061 -308.232808 2429.730034 126 102 90
-37.761515 -423.802900 2457.004547 89 87 99
-33.732164 -471.433306 2461.520386 41 47 54
-32.049575 -329.541469 2421.311951 72 81 84
-36.377418 -420.871925 2456.878853 121 127 134
-29.677373 -476.611280 2461.618614 29 22 27
-32.951638 -436.123991 2461.150360 57 51 70
-33.840483 -448.045111 2466.793442 104 76 69
-30.188063 -405.448294 2447.543716 103 113 113
-26.177689 -486.309910 2461.464691 44 26 33
-50.699067 -167.640531 2425.705719 187 137 125
-31.304884 -369.143534 2447.452164 119 127 134
-31.304884 -369.143534 2447.452164 119 127 134
-26.287293 -433.793020 2465.465164 69 61 71
-31.580365 -356.529045 2460.861588 66 54 54
81.017524 280.479455 2110.410690 17 21 39
-37.866825 -214.429641 2440.420341 224 178 161
-37.866825 -214.429641 2440.420341 224 178 161
-38.129956 -191.706133 2436.126518 121 89 84
-37.144619 -270.986509 2457.141685 160 127 112
-19.784851 -380.886483 2452.385712 125 139 145
73.604530 284.106135 2126.327324 105 117 129
-21.319719 -389.273167 2461.376381 138 141 145
-22.572754 -311.040854 2446.279526 118 110 110
-17.038518 -363.810277 2449.893761 113 124 128
-34.588197 -223.527169 2448.268890 169 120 106
-16.847356 -379.299641 2454.377937 54 58 63
-31.968522 -200.413656 2437.142754 164 118 107
-19.279103 -391.349626 2464.415359 100 77 85
-23.537195 -290.134931 2446.007156 103 91 109
-15.180261 -376.597166 2453.915977 137 141 152
-13.239270 -372.090268 2452.624321 167 180 182
-13.352194 -380.899501 2457.624245 129 137 137
-95.418280 249.509215 2494.359016 62 51 61
-13.783835 -391.056371 2462.397194 102 77 81
-5.551204 -465.438223 2466.982460 139 160 162
-12.345009 -355.176497 2453.380585 68 74 79
-15.165964 -298.406768 2445.561028 53 53 65
-7.544479 -420.682955 2464.704132 169 184 186
-10.160667 -363.479781 2457.714272 82 86 105
-23.866244 -197.939587 2442.288208 203 165 147
-2.096955 -433.921528 2468.661118 152 133 130
-2.901109 -409.875154 2464.496803 150 128 100
-24.109352 -223.731065 2458.581161 122 77 64
-7.617624 -371.266890 2466.621017 156 127 122
-22.598299 -223.336625 2456.298637 122 77 64
-7.035369 -370.919561 2465.772820 156 127 122
-5.955229 -355.811810 2460.345459 46 52 59
-27.218962 -200.202775 2464.514923 153 117 107
0.414067 -417.327547 2465.575600 192 138 115
-0.095726 -432.796860 2472.603607 120 109 117
-0.774368 -438.793850 2477.834702 203 152 126
-13.364276 -265.953422 2460.050964 106 78 71
2.684162 -426.463223 2472.716713 168 171 175
-1.461746 -352.189517 2460.959244 76 85 98
-15.988475 -194.186807 2449.111938 153 117 107
-15.988475 -194.186807 2449.111938 153 117 107
2.081055 -396.812892 2469.625473 126 119 116
4.382455 -429.367304 2478.679657 122 108 114
7.489673 -411.482811 2473.286057 125 129 140
5.988938 -384.185863 2473.241043 72 42 37
0.880956 -293.941212 2458.363533 59 48 50
9.919215 -413.793516 2475.588417 84 86 97
10.080264 -418.720102 2480.715752 99 78 81
6.830128 -347.207665 2466.860580 130 132 132
3.291792 -278.178144 2457.925606 104 91 113
12.345058 -414.594364 2479.673958 142 136 137
15.529732 -469.184589 2489.626312 44 24 43
11.548971 -402.504730 2478.870964 75 46 39
10.573398 -345.545340 2470.386505 140 155 157
8.008342 -288.244772 2462.283134 83 85 85
13.945919 -397.461867 2483.046150 126 138 142
14.625266 -390.226340 2483.011627 114 100 77
14.469898 -381.551147 2482.172012 126 118 111
11.219723 -284.391046 2462.330246 62 62 68
-1.453314 -227.028394 2476.099777 91 53 49
107.221222 47.876510 2141.830444 109 99 129
22.124743 -361.947560 2473.207092 187 147 135
7.081380 -209.307837 2472.664833 189 149 131
25.402993 -392.970753 2488.705063 132 134 142
30.944854 -400.302601 2480.355835 77 79 87
29.636955 -416.793871 2494.524002 120 126 131
28.606179 -362.689137 2480.999756 66 64 70
28.169438 -346.977091 2481.186485 99 99 111
23.343362 -100.084388 2423.203087 147 115 102
23.343362 -100.084388 2423.203087 147 115 102
11.477898 -194.058514 2473.649788 107 64 55
11.477898 -194.058514 2473.649788 107 64 55
29.382646 -336.620450 2478.441429 57 58 68
28.147969 -329.467535 2480.823135 51 36 44
30.905616 -293.461847 2463.352966 46 43 68
35.891706 -421.414995 2499.293900 56 42 44
108.824968 -4.416486 2185.877037 124 81 72
31.471610 -330.535746 2482.102585 58 49 45
33.374831 -350.876760 2483.839607 99 101 112
33.374831 -350.876760 2483.839607 99 101 112
33.432344 -347.013283 2484.195709 67 64 80
36.907044 -346.805024 2486.724091 122 123 137
33.220249 -249.206638 2469.960785 61 57 68
39.735740 -345.267773 2488.791275 99 104 119
40.542316 -383.594036 2500.319862 83 86 90
45.338294 -405.040026 2505.772591 61 47 51
37.385041 -240.680456 2473.339844 103 112 115
43.240333 -241.431189 2477.765083 108 120 124
69.666523 -310.698438 2457.867813 121 111 117
58.564812 -353.878284 2502.162743 129 154 158
71.086055 -447.304678 2510.637093 202 161 138
69.699073 -435.587931 2512.885284 113 75 71
54.771757 -247.510695 2484.663010 113 126 134
64.398712 -354.984379 2502.338982 90 96 101
72.204250 -349.651217 2503.421021 118 133 136
72.788197 -264.026117 2474.271011 72 84 86
78.311855 -396.183944 2523.031998 153 177 175
79.592538 -400.321198 2525.769615 48 44 63
76.298451 -241.016459 2478.734207 137 149 153
78.539425 -258.023524 2481.656837 32 41 50
77.400273 -243.781829 2481.615639 69 75 86
89.764750 -432.429361 2522.692299 126 88 76
78.973675 -240.258098 2480.501938 107 123 130
80.112284 -237.362456 2480.971146 68 59 85
83.427107 -260.651660 2481.736374 114 128 124
84.589189 -375.191188 2523.288918 120 132 134
84.177375 -276.907945 2488.013840 128 104 98
83.887035 -253.664517 2483.410645 125 120 121
93.441194 -448.868656 2534.610367 65 24 45
92.304504 -412.286472 2533.185959 148 112 126
97.013772 -434.394550 2528.817940 99 58 49
86.977547 -241.020775 2483.742142 117 125 132
87.650496 -249.535203 2485.763931 129 138 147
90.421695 -258.620667 2487.432098 102 119 122
99.424332 -440.497255 2534.004211 120 79 77
96.876496 -431.682873 2538.745880 164 131 116
88.610739 -221.707487 2482.394791 110 80 85
94.764614 -373.517156 2525.638962 39 27 23
91.907269 -259.097266 2493.162537 94 105 113
93.594444 -259.381986 2491.575241 104 115 123
102.038407 -456.415558 2545.458794 99 80 95
104.762125 -457.336950 2545.859718 80 59 81
101.166463 -260.319328 2494.099998 42 41 51
101.149559 -354.527187 2532.539368 109 70 62
100.405622 -242.502952 2496.187592 111 113 123
100.405622 -242.502952 2496.187592 111 113 123
108.871400 -412.975168 2541.257858 121 76 103
108.871400 -412.975168 2541.257858 121 76 103
110.848510 -452.421093 2556.526566 110 85 99
67.976242 299.237299 2380.736732 113 86 76
73.443192 -272.403121 2601.321793 153 161 168
112.587786 -457.647324 2560.447311 114 85 108
67.423618 343.882561 2373.357391 123 92 77
112.977147 -392.800784 2547.630501 73 44 39
113.361764 -381.886172 2545.300293 146 113 104
109.444654 -243.835759 2503.630257 117 129 135
117.218268 -384.083295 2549.261856 88 53 49
117.218268 -384.083295 2549.261856 88 53 49
118.670011 -394.730258 2549.953842 75 44 41
112.862062 -249.865890 2509.002686 92 98 109
120.188332 -254.636407 2513.379097 94 108 107
117.482913 -240.110850 2517.073631 163 176 178
117.482913 -240.110850 2517.073631 163 176 178
117.399430 -236.874175 2516.549683 160 173 175
117.399430 -236.874175 2516.549683 160 173 175
