ply
        format ascii 1.0
        element vertex 975
        property float x
        property float y
        property float z
        property uchar blue
        property uchar green
        property uchar red
        end_header
        0.000000 0.000000 0.000000 0 0 0
-8421.914673 528.848457 18986.561584 129 134 130
-820.680809 600.189495 2532.189178 117 122 125
166.129088 8.451267 -1024.619865 130 134 134
338.445544 818.046665 -4571.038055 23 22 96
74.262905 15.347950 -2009.906387 122 126 126
43.504825 87.459493 -3495.855331 46 26 12
43.504825 87.459493 -3495.855331 46 26 12
2603.322220 25644.409180 -71273.004150 156 150 156
65.193200 7164.271545 -20978.312683 28 24 87
-67.803204 -6577.912140 43339.575195 38 22 17
-1.272116 -338.624811 1621.135139 50 36 26
859.830284 -16502.880859 56416.680908 61 94 133
-151.168811 -361.215758 -1657.460213 90 85 80
-1906.443405 714.265633 -21727.824402 133 133 134
-57.732511 137.089205 560.551691 29 32 35
405.029011 -358.813763 4664.655685 27 26 100
1309.808064 1825.455475 12540.876007 140 144 144
5659.511566 11852.222443 46214.892578 48 49 41
-6234.941483 -3897.633743 -20489.790344 132 138 131
8381.229401 3674.022293 -16320.574951 135 144 155
8381.229401 3674.022293 -16320.574951 135 144 155
-9616.748810 -3780.434799 20534.738159 145 119 117
844.313431 -1516.568470 -6373.028946 195 194 191
369.140196 -608.780766 -4099.668121 132 138 138
149.948883 -602.918243 -2787.899399 32 30 30
178.296447 -104.660285 -4490.739822 72 69 78
8.323707 1321.445370 -9308.782196 125 109 92
-250.638366 -17576.281738 -74493.994141 43 44 36
-121.707141 1102.555656 -8162.014008 130 105 80
-199.334037 4328.274155 -12046.805573 146 140 146
-344.834995 -3694.832993 14861.810303 87 68 65
147.115755 517.097521 2010.115242 26 30 29
138.290846 393.722868 1503.937340 26 30 29
23000.305176 10302.727509 -45376.416016 45 37 55
37404.574585 11583.003235 -74248.272705 136 142 149
37404.574585 11583.003235 -74248.272705 136 142 149
-17747.714233 -5504.203415 35231.161499 136 142 149
2719.805145 261.019087 -6136.955643 128 137 136
2510.573959 -588.620901 -18086.576843 74 81 85
393.521833 -765.497065 -3891.913986 32 31 28
327.690363 -818.076038 -3944.357681 133 131 125
156.132257 -36.084887 -1016.225910 128 132 132
285.125446 -792.097092 -3840.549088 25 30 33
222.240949 -87.870175 -947.739315 121 126 129
182.761621 -752.668142 -3723.391342 38 38 32
175.182259 -789.914608 -3792.964172 121 115 113
175.182259 -789.914608 -3792.964172 121 115 113
142.756438 -784.231615 -3749.940109 27 26 23
115.609479 -777.473545 -3726.559448 117 116 113
115.609479 -777.473545 -3726.559448 117 116 113
134.370995 66.174811 -338.622165 27 27 27
113.060522 1792.117691 -8386.774445 61 43 31
17.769165 -893.020058 -4857.426453 90 91 146
-88.487345 -825.173664 -3886.407089 76 77 74
527.058125 306.852627 7856.735229 60 41 25
122.985518 47.094551 -282.337952 121 126 129
201.623297 43.369794 1627.441406 35 28 30
743.603134 849.064064 6805.548859 135 139 139
137.473488 38.089752 -140.539181 125 129 129
123.571026 73.043114 -127.023244 121 126 129
4197.271347 292.169690 -8192.079926 38 52 108
-5235.810852 756.214380 10247.765350 52 138 163
24009.259033 6372.385406 -49841.094971 31 31 41
19517.710876 6872.415924 -40745.727539 130 138 140
-21545.785522 1341.127586 45071.090698 20 56 33
-13778.736877 1407.636547 29199.822998 40 102 143
-13778.736877 1407.636547 29199.822998 40 102 143
-13778.736877 1407.636547 29199.822998 40 102 143
8066.619110 3240.623856 -17202.514648 135 116 113
-27997.552490 2045.003700 59984.234619 81 113 129
-14770.268250 1411.433029 31778.872681 91 117 132
4137.302399 -165.588057 -9307.836151 128 134 133
540.233517 455.029297 -1484.359741 154 159 162
645.675516 601.089334 -1864.915848 154 159 162
305.910230 -736.178970 -3741.370392 124 126 120
198.891962 -268.563628 -1780.800819 123 126 118
198.891962 -268.563628 -1780.800819 123 126 118
56.614536 -383.219624 5374.598312 126 131 134
96.683419 294.809151 5951.226044 136 140 140
182.454693 22.799146 -353.537703 251 255 254
219.017625 95.036280 6164.888382 128 132 132
226.977849 225.271320 7039.466858 38 27 21
109.504688 -848.082829 -4223.038101 35 34 31
57.603204 -1536.094284 -6894.901276 31 32 29
71.488130 -912.770653 -4506.781387 123 126 118
721.106720 -4114.350891 11522.460938 61 63 75
-45.196339 -915.250397 -4528.064728 98 99 96
-45.196339 -915.250397 -4528.064728 98 99 96
3987.700653 -946.338749 49541.156006 132 136 136
-535.176611 -1244.927979 -5739.665222 200 198 192
-5217.386246 -3406.917191 -18603.405762 119 126 117
2170.769119 1257.393646 5841.596985 119 126 117
-785.588837 -322.511005 -2315.941048 35 39 39
220.409393 196.203673 164.215398 147 153 146
-54.704762 1313.720989 7183.077240 40 27 21
289.749861 -598.200512 -3193.423462 122 123 120
632.222986 13129.415894 -37461.727905 33 29 92
-34.340423 4780.335236 -13395.251465 170 161 163
-253.358793 6445.142365 -18313.304138 169 164 168
142.579544 -811.715698 -3966.156769 36 36 30
99.169111 -208.957911 -5178.548431 30 30 90
126.635730 -677.770758 -3572.672272 33 31 32
105.810988 -677.540588 -3586.045456 113 119 112
297.391152 60.627800 -687.091589 40 28 19
-106.819594 -750.818205 -6136.844254 139 143 143
-177.887189 -1057.172394 -6042.485428 60 61 128
-579.996777 318.992615 -8505.133820 133 136 139
-252.735591 -916.880226 -4907.686996 36 36 30
-403.269291 -1101.525116 -5499.227142 195 196 188
24509.263611 17489.404297 45561.444092 228 216 212
28896.792603 9955.033112 -57005.187988 142 138 144
-27483.755493 98.626560 56721.972656 99 132 146
-20728.533936 -7431.551361 43479.821777 134 140 140
-25077.159119 -4480.167770 54417.785645 82 64 54
-17977.526855 -2574.720955 40770.822144 121 128 124
1311.855316 1191.449738 -3627.314377 144 147 150
-383.240008 1665.910339 6234.856415 192 192 186
420.477104 82.628667 -896.296215 44 28 18
-178.969908 -803.024864 13897.525024 122 124 129
329.945326 -731.079483 -3655.773544 42 41 33
271.451139 -725.165653 -3802.426529 111 116 112
76.305902 -946.590328 -4845.633698 155 145 136
76.305902 -946.590328 -4845.633698 155 145 136
-479.093647 419.648409 -11245.820618 135 133 134
-39.457935 -1057.110119 -5373.557281 104 100 100
-672.044706 465.957928 -13333.099365 135 133 134
-23591.555786 -5350.019073 44815.136719 19 37 88
-28563.201904 -5542.063141 54286.468506 130 138 145
-12339.157104 1673.815918 24324.182129 57 139 161
-23024.470520 -10518.910980 45550.903320 45 45 55
-16596.023560 4964.106369 33949.777222 51 85 110
-15859.597778 -4194.709778 32768.664551 138 137 141
-15947.874451 -5116.073990 33438.562012 39 36 45
-14264.985657 -5424.547577 30009.347534 139 142 145
-16818.522644 -7471.673584 35363.504028 40 34 45
-14165.934753 -5814.952469 30143.188477 63 47 55
-8004.813385 1067.460346 17216.735840 44 102 143
-28141.564941 -5116.241837 65376.867676 128 133 129
607.049417 -311.666584 -2053.649521 34 35 27
548.318338 -103.175044 -1551.596832 128 134 134
548.318338 -103.175044 -1551.596832 128 134 134
512.908649 73.291886 -1192.237663 21 30 107
691.243982 -555.762053 -3591.972351 137 139 133
680.195332 -529.322863 -3457.632828 137 139 133
680.195332 -529.322863 -3457.632828 137 139 133
732.490873 -803.611469 -4169.385529 137 136 133
596.461821 -411.364174 -2358.234406 126 125 122
559.653854 305.933928 -1903.721237 53 93 126
860.725975 -1409.351254 -6579.666138 137 137 131
620.789146 -442.428637 -2916.779900 92 90 91
-672.613144 4895.212936 19045.045471 132 135 127
518.617916 147.916758 -1447.478771 43 29 19
502.337122 53.830850 -1198.902798 82 87 90
501.946497 61.508155 -1202.259731 119 123 128
143.841338 1805.371284 5836.260605 134 133 130
143.841338 1805.371284 5836.260605 134 133 130
188.522029 1450.990868 5004.172516 132 134 128
-2269.990730 -22208.595276 59971.234131 149 126 130
-2269.990730 -22208.595276 59971.234131 149 126 130
340.117908 830.101585 2531.427574 139 136 133
349.645257 836.437035 2391.946411 94 100 93
508.633518 6.440546 -1533.698082 124 124 124
508.243656 6.263949 -1526.636887 124 124 124
504.429674 -95.007992 -1431.437874 19 18 67
504.429674 -95.007992 -1431.437874 19 18 67
504.429674 -95.007992 -1431.437874 19 18 67
594.388628 1235.814953 -4073.099136 155 152 156
505.661297 -24.018134 -1575.209045 46 29 14
488.223410 -70.583165 -1436.401367 119 125 125
463.085127 221.423721 -1828.108406 43 29 17
460.942554 52.823085 -1161.206627 128 126 127
460.942554 52.823085 -1161.206627 128 126 127
499.034023 204.172945 -120.504594 140 141 133
653.911638 277.595425 2451.430511 14 15 77
266.377044 176.692915 -3185.547256 132 132 132
218.688178 232.148385 -3458.379364 133 133 134
-186.523616 624.311543 -6451.211548 23 23 74
2037.405205 -1067.589951 12266.819763 27 28 83
1012.788486 -222.852349 2747.281837 134 138 138
1012.788486 -222.852349 2747.281837 134 138 138
416.300392 19.803193 -1011.787891 136 136 136
31762.554932 2348.247528 66655.334473 28 31 39
31762.554932 2348.247528 66655.334473 28 31 39
-5975.395203 -1780.148506 -14082.406616 113 117 116
-5975.395203 -1780.148506 -14082.406616 113 117 116
14173.152161 3939.443207 27620.214844 113 117 116
14173.152161 3939.443207 27620.214844 113 117 116
13137.164307 -1817.127228 25404.629517 126 130 130
13777.844238 -8792.042542 25939.691162 56 65 76
17899.761963 -1586.564541 33994.387817 33 32 36
463.269281 27.267212 -733.283758 130 131 128
3998.365784 -402.058935 6023.949051 44 50 69
-25110.087585 -12266.865540 -49576.223755 18 14 20
-32625.659180 -14165.032959 -63869.256592 45 50 59
-20834.823608 -9657.407379 -41336.871338 35 38 46
15353.170776 8091.260529 27636.999512 39 37 38
-4685.073471 -973.666954 -10513.306427 10 14 14
8823.221588 3788.412857 -17187.045288 49 40 56
8808.871460 2594.944382 -17376.821899 142 139 143
7133.971405 2829.325104 -14124.917603 68 68 78
9791.874695 -2666.106224 -19677.485657 49 84 106
8499.521637 3044.377136 -17159.143066 91 48 56
7710.115814 2924.869537 -15752.532959 148 139 141
8538.578033 -1282.985115 -17541.224670 29 57 45
8538.578033 -1282.985115 -17541.224670 29 57 45
13403.666687 5375.508499 -27723.046875 30 35 44
13403.666687 5375.508499 -27723.046875 30 35 44
9029.673004 3754.459381 -18605.252075 34 34 44
6992.655182 -3100.399971 -14396.611023 156 177 179
5482.537842 1861.236191 -11328.776550 113 100 107
12198.116302 -1400.928020 -25573.330688 38 104 142
12198.116302 -1400.928020 -25573.330688 38 104 142
8130.027008 -660.005999 -17165.682983 92 119 131
4197.920990 -1974.717712 -8949.221039 181 187 187
7759.452820 -3188.843155 -17151.499939 14 19 22
8020.742798 1132.375526 -17779.684448 125 131 131
407.143164 -35.090688 -548.045111 151 155 155
564.683723 24.064657 -1226.143551 133 137 136
537.455940 25.875366 -1101.971340 133 137 136
618.610764 -227.777719 -1795.744896 192 192 186
631.310081 -251.294184 -1899.497795 192 192 186
2493.785858 5645.786667 -16085.252380 172 171 175
2115.460014 6249.774933 -17051.362610 254 254 254
473.379993 3.638512 -855.557632 143 146 138
556.717443 308.768702 -1917.526245 60 98 131
337.904620 472.703505 1113.997459 79 85 84
4471.304321 22588.227844 -62359.558105 186 159 160
484.735155 40.852809 -1128.256226 120 125 128
493.814182 74.623644 -1299.998760 123 125 130
425.247383 212.342000 33.900130 93 93 87
1465.483379 8203.495026 -23012.101746 142 120 120
441.876030 176.628900 -160.301232 103 96 91
448.334026 136.915350 -260.960793 145 146 138
460.359907 29.651675 -737.620068 123 127 126
458.049202 141.274047 -266.182923 93 93 93
458.049202 141.274047 -266.182923 93 93 93
458.191824 145.950985 -195.481980 148 145 142
496.054888 3953.921127 -10754.759216 198 191 228
459.991169 365.814352 -2598.254013 45 32 17
459.991169 365.814352 -2598.254013 45 32 17
459.991169 365.814352 -2598.254013 45 32 17
459.164047 -153.757918 -1710.575867 139 131 110
449.240303 53.289425 -1571.094704 125 128 131
449.240303 53.289425 -1571.094704 125 128 131
448.343325 53.825164 -1632.289696 125 128 131
141.599762 3641.477966 -10828.754425 142 144 156
519.517422 -151.489937 133.817983 49 31 19
457.825518 30.255461 -733.415365 60 98 131
610.610485 -98.321611 463.170719 24 25 80
456.842852 26.302359 -753.446341 16 17 72
4126.434708 -1660.250664 22269.348145 133 137 137
-4187.813187 6246.112442 -17683.439636 254 254 254
2204.292488 1141.851139 5072.295380 119 126 117
455.907822 28.313753 -729.296207 123 127 126
-1426.468086 -108.672023 -4780.987167 31 33 43
-747.314596 -400.835991 -3155.836868 12 17 13
-10646.327972 7390.952301 -22958.880615 55 64 75
-1085.275745 -480.645370 -3812.714386 104 110 110
-2225.986481 -129.998577 -6075.822067 116 120 119
-2977.228165 349.328542 -7563.510132 32 31 35
-2044.521904 -1746.704292 -5588.777161 117 115 116
-1632.786560 -1479.596615 -4720.980835 230 218 209
490.067959 36.822405 -660.562372 15 11 12
12614.582825 3461.368179 -24082.449341 1 24 69
8354.859161 3583.798218 -16269.528198 46 39 55
7227.268219 -2789.196777 -14069.229126 160 169 168
7935.620117 2361.098289 -15536.843872 134 138 143
7935.620117 2361.098289 -15536.843872 134 138 143
7189.355469 -1910.567284 -14396.328735 45 80 102
8095.285034 2900.829887 -16338.752747 85 46 56
13930.003357 5715.185547 -28645.416260 155 141 144
8532.122040 3544.104004 -17571.777344 30 35 46
4677.415848 -1990.101051 -9555.603790 153 172 179
6207.017517 -519.588518 -12872.784424 40 101 138
6498.965454 -941.604900 -13502.893066 29 50 66
6498.965454 -941.604900 -13502.893066 29 50 66
3899.788284 -387.614465 -8016.107178 38 100 134
3899.788284 -387.614465 -8016.107178 38 100 134
6227.482986 1433.354759 -13124.076843 119 129 131
503.410769 50.017601 -1121.515179 79 86 90
603.569651 309.367871 -2160.125732 46 91 123
506.295109 76.407439 -1220.340443 13 18 73
549.761534 210.721779 -1659.908676 46 91 123
502.633381 69.193047 -1226.838493 24 27 82
496.582127 53.377569 -1185.475159 78 80 90
454.300356 30.471504 -720.351791 98 107 105
518.225050 -40.253201 -1757.774925 41 28 22
272.643256 723.061657 2442.952538 100 98 99
733.105898 1259.460068 -5857.683945 41 29 25
504.125643 193.640935 -1660.576630 46 88 121
423.846865 162.927306 -144.567251 143 141 135
423.846865 162.927306 -144.567251 143 141 135
483.700323 85.837454 -1304.510593 54 89 116
455.502558 37.025565 -778.384542 4 33 59
475.895071 33.467856 -1257.516289 45 29 19
-441.513014 -10280.314636 26609.518433 194 194 206
444.770193 140.994489 -297.683191 103 109 109
449.237299 131.966209 -260.769486 95 97 91
439.881945 -432.164001 4215.345764 30 21 16
460.147810 489.743519 -3278.870773 45 31 19
460.147810 489.743519 -3278.870773 45 31 19
460.147810 489.743519 -3278.870773 45 31 19
447.499180 -174.295568 -2446.720314 116 122 122
447.499180 -174.295568 -2446.720314 116 122 122
452.069902 29.323798 -731.780434 65 91 113
450.824261 65.822297 -1477.352810 83 82 86
450.009346 45.746273 -1429.675674 121 124 127
457.193136 122.105229 -342.021418 88 86 80
517.450905 -3039.369965 7162.255096 61 53 147
435.851526 157.207775 -2341.789627 25 21 27
435.851526 157.207775 -2341.789627 25 21 27
364.334869 -23.479733 -2781.118965 124 124 125
521.616888 -319.239902 714.772797 49 31 19
469.698191 104.222989 -417.951012 88 86 86
469.698191 104.222989 -417.951012 88 86 86
405.430698 17.403945 -1695.334625 33 20 14
50.557733 1432.586384 -8055.684662 51 92 123
50.557733 1432.586384 -8055.684662 51 92 123
412.799644 35.608596 -1482.357979 49 32 17
403.695250 106.805658 -1548.355961 50 86 116
473.372889 102.677488 -421.943665 91 89 90
-615.936375 2029.367447 -12544.024658 46 32 20
511.291838 -93.042982 -91.099769 63 41 27
-24.912687 958.400154 -5393.244171 52 91 127
245.150208 -244.639850 -2520.444870 137 141 141
379.462695 67.033374 -1337.392330 125 128 131
366.460419 -96.812385 -1438.379574 27 31 36
376.553559 -81.651688 -1351.990509 27 31 36
390.537381 89.095300 -1214.228630 51 92 121
356.551266 100.798476 -1422.042179 28 28 93
294.413638 -228.876972 -1810.164261 196 194 188
-1061.233139 870.160484 -4759.455872 47 93 123
421.607018 36.292475 -812.944221 38 66 88
-25875.280762 -1916.444016 -57490.679932 24 27 35
-3125.249481 550.220203 -8099.185944 125 129 129
-1011.845398 59.947288 -3741.876221 120 124 123
-6038.319778 4335.425568 -13737.722778 59 65 79
-3802.070236 424.594688 -9210.942078 32 31 35
-4419.194031 871.545792 -10424.459076 33 52 61
425.775671 31.719735 -780.207157 62 59 63
425.775671 31.719735 -780.207157 62 59 63
445.137310 27.343825 -721.507454 141 147 147
1364.104271 292.695045 -2503.735542 127 137 152
2985.045242 1169.623470 -5709.961700 44 39 55
1979.666710 79.962265 -3737.060547 89 130 154
1812.913513 527.256203 -3419.139862 140 135 144
1812.913513 527.256203 -3419.139862 140 135 144
1245.911407 -256.348872 -2305.970764 117 129 137
2560.851860 1026.980019 -5070.920181 90 47 55
1190.094662 -332.236934 -2259.949493 166 173 177
2374.616051 659.018087 -4718.238068 133 132 136
2605.966377 966.808510 -5218.859482 34 34 44
1070.127964 -267.389798 -2024.497986 155 173 178
3289.663315 1165.586090 -6701.048279 82 46 60
1442.433453 -65.151417 -2821.736336 42 99 134
1442.433453 -65.151417 -2821.736336 42 99 134
1498.715401 -139.064741 -2943.428421 23 50 67
1101.034641 -306.098390 -2162.644005 97 107 114
923.907566 70.848298 -1801.284981 125 131 131
508.310127 -63.540262 -1112.750816 188 188 182
622.289896 128.327048 -2170.985413 119 123 128
1097.745800 572.090673 -6273.916626 24 25 92
435.975838 59.858704 -605.470800 30 31 28
467.410326 79.947609 -942.829895 51 91 124
448.323202 30.060473 -737.060785 54 35 19
442.974806 47.189537 -643.282652 151 152 144
441.880703 51.963431 -621.320105 151 152 144
469.873905 5.414085 -1069.540977 16 17 93
448.241282 31.835920 -744.050694 118 118 118
442.746878 55.929452 -618.838167 153 153 147
494.977713 36.780366 -1622.072792 51 30 19
147.753870 -157.432127 5676.449585 83 69 59
147.753870 -157.432127 5676.449585 83 69 59
452.542734 26.817706 -806.657696 120 124 124
443.936586 55.690640 -606.927872 102 102 103
444.033384 56.812543 -608.841991 151 152 144
-146.236062 -5674.441528 15145.434570 149 144 153
476.727533 -8.656021 -1528.364182 115 119 119
444.475889 56.386709 -604.787683 123 127 127
445.218849 61.054140 -606.020975 105 107 112
445.192814 61.849040 -602.955770 105 107 112
448.643446 28.229514 -689.148188 128 127 131
447.782660 67.520672 -580.515575 111 109 109
449.745560 271.344662 -1352.603817 189 182 221
449.516201 73.408741 -1367.709541 123 121 122
450.789690 48.069471 -1509.947014 123 122 126
452.686453 196.292460 710.997915 113 119 119
450.450802 67.961270 -566.302109 108 101 96
438.192844 255.135632 -1326.247883 138 128 195
409.974241 227.401233 -1907.191658 27 19 17
409.178019 1.897176 -1684.139061 123 123 123
463.311052 81.528252 -507.701635 112 112 112
448.081398 30.783290 -752.630901 117 125 127
435.521173 2.515440 -878.374004 18 18 35
341.356945 307.867527 -1929.232025 55 95 128
471.213913 88.746595 -515.810061 64 61 58
409.235239 62.916040 -1088.656044 22 23 72
15560.523987 -17995.130920 50181.802368 178 171 180
-1505.308151 -672.649002 -4686.016846 9 13 12
-1486.248302 1313.515282 -4612.160492 57 66 75
-1749.098206 233.167028 -5115.996170 35 33 33
-1749.098206 233.167028 -5115.996170 35 33 33
-1791.355133 -668.695354 -5203.345108 109 116 112
-1689.504623 -116.080141 -4972.998428 29 31 36
-1800.253677 -685.741854 -5184.175873 36 36 36
-1446.174240 -216.013432 -4419.842148 113 119 118
-1703.406715 782.730150 -4856.543350 88 87 84
-1731.040001 420.541143 -4903.888702 55 47 45
-1643.586540 402.976847 -4733.940125 55 47 45
14871.392822 1917.577934 26860.461426 43 47 46
-1547.046280 -227.797055 -4538.064957 43 47 46
2775.732040 -959.108162 -5135.610199 119 129 136
2796.716118 996.051121 -5285.672760 76 80 94
3232.394409 1109.697533 -6209.799957 139 142 145
4048.052216 -240.282536 -7908.308411 0 77 110
3338.421249 1201.617527 -6506.869507 55 42 54
3832.985687 1625.405693 -7676.925659 90 46 50
2120.089340 719.552088 -4200.446320 31 31 41
2120.089340 719.552088 -4200.446320 31 31 41
2902.302170 1094.961643 -5829.484177 30 30 42
3244.054031 1097.448540 -6547.171021 49 40 47
2827.019882 -1040.899181 -5680.143356 65 97 120
3679.918671 1582.322025 -7482.746124 83 45 52
2848.097992 716.361570 -5745.355606 106 98 96
2703.301430 542.091465 -5450.845718 133 116 113
2236.608696 -228.568769 -4484.858704 39 98 135
2380.233765 -154.443932 -4790.524673 37 98 135
497.247362 26.255372 -952.160168 126 132 132
477.071095 45.865232 -946.391106 39 33 81
477.071095 45.865232 -946.391106 39 33 81
484.877253 -17.746651 -1044.891739 125 131 130
473.517513 53.785759 -956.262684 25 25 95
460.635662 47.257578 -864.853477 43 29 31
469.944859 -34.819952 -998.205662 32 31 28
452.868557 58.023107 -829.312706 24 22 92
451.575375 13.328463 -831.510353 112 117 120
-287.627435 -5760.549545 15079.553223 139 119 126
683.053541 2005.181503 -6225.105667 161 153 158
448.015451 18.753107 -770.503616 157 158 150
449.384594 54.809308 -807.164097 44 48 120
447.792244 16.537191 -776.799536 112 113 105
447.792244 16.537191 -776.799536 112 113 105
451.316690 60.664034 -915.075779 34 25 14
449.982071 134.474003 -998.312950 44 36 111
449.982071 134.474003 -998.312950 44 36 111
444.783735 63.364667 -830.568218 38 33 99
445.135307 11.186370 -798.586941 117 115 116
441.091347 14.604461 -834.811401 123 127 127
441.500044 25.224727 -802.726555 54 34 15
450.028515 32.218719 -671.329212 129 125 136
433.553791 -5.468167 -879.593945 76 76 76
448.250580 27.639270 -700.931120 44 37 27
447.719383 29.652387 -707.824516 31 30 63
443.392277 28.870305 -758.700562 125 130 133
447.525883 29.963079 -711.635065 43 40 80
447.121048 30.334541 -716.787529 51 51 89
447.121048 30.334541 -716.787529 51 51 89
397.968316 -39.075953 -1165.743923 139 143 142
459.718895 49.222648 -602.935219 139 143 142
446.958637 30.444831 -718.732071 44 43 83
447.141266 30.589807 -721.221209 126 136 143
495.250177 34.708938 -606.034899 66 66 66
495.250177 34.708938 -606.034899 66 66 66
576.851130 6.251957 -436.130285 36 71 98
336.802077 50.929338 -959.717941 36 71 98
2950.265694 755.558729 4477.903748 112 116 115
3246.255112 1038.312244 4954.713440 9 13 12
1585.358810 -725.630522 1566.963005 57 64 73
2458.922768 -155.625212 3300.235748 31 33 38
2458.922768 -155.625212 3300.235748 31 33 38
4798.460770 1544.433784 7765.351868 103 112 111
4798.460770 1544.433784 7765.351868 103 112 111
6808.099365 4540.722275 11641.449738 115 114 118
3916.820526 1101.229191 6013.042450 108 117 116
331.624961 30.605695 -943.463707 46 39 41
4056.617737 1336.044025 6183.880997 40 38 38
5496.988297 3533.796310 8943.334961 149 150 147
2799.232101 -386.707258 3754.268265 37 30 31
4816.369247 1668.892288 7598.000336 119 120 112
4816.369247 1668.892288 7598.000336 119 120 112
2715.514183 966.244698 -5164.801788 143 142 146
3075.045013 846.853447 -5910.025024 135 140 151
3075.045013 846.853447 -5910.025024 135 140 151
3738.112259 1052.732182 -7222.251892 135 140 151
3738.112259 1052.732182 -7222.251892 135 140 151
3883.790207 120.071089 -7602.760315 20 56 88
4676.484680 -1187.669277 -9276.990509 47 78 104
4676.484680 -1187.669277 -9276.990509 47 78 104
2646.937752 807.766151 -5292.192078 136 134 140
4031.125259 1508.494854 -8175.455475 31 33 43
2725.954437 1019.397926 -5462.300491 37 34 43
3074.202728 -1286.791229 -6250.114822 69 101 124
3726.861191 -263.359714 -7730.007172 78 112 137
420.688248 -9.674817 -613.290310 147 151 151
437.797022 43.152869 -659.033728 189 189 183
467.697430 40.224323 -856.409740 123 128 131
467.697430 40.224323 -856.409740 123 128 131
463.439941 38.528123 -844.925308 33 30 97
1046.841240 1995.622444 -5987.577820 93 79 81
461.386442 42.588153 -848.726082 25 27 87
530.266380 -120.131469 -1496.471310 31 24 25
466.780376 42.075691 -911.675549 35 33 98
466.780376 42.075691 -911.675549 35 33 98
481.600046 -31.380892 -1059.786320 22 22 87
449.784899 22.314899 -747.530222 105 103 103
449.784899 22.314899 -747.530222 105 103 103
478.783035 -66.015631 -1118.757534 30 32 26
574.467516 -25.545463 -2499.069595 123 123 123
446.943474 29.601678 -719.493103 127 125 125
446.950340 28.678650 -712.069082 133 127 120
446.940041 30.486059 -721.130610 74 90 107
455.176783 21.831644 -930.236435 70 48 28
447.572613 18.576422 -754.147959 156 151 146
441.107225 169.267178 -1082.073593 63 54 145
448.819208 13.734379 -613.448524 52 34 15
440.818405 -4.126783 -873.138714 87 82 77
442.015028 65.882617 -841.351414 106 111 146
436.022902 -29.926637 -956.301117 174 170 163
436.998844 -15.318568 -920.130062 171 170 162
448.421144 24.638219 -687.112522 45 86 117
446.346140 29.324147 -729.795980 130 128 129
445.903730 28.707668 -736.401367 86 67 59
446.989202 29.715523 -717.496395 43 28 20
402.226877 -65.410364 -1184.933281 168 167 159
446.428633 30.331403 -723.507500 45 90 122
445.589972 30.549648 -730.412674 127 130 133
261.779094 -161.957073 -1463.960266 198 196 190
-458.248281 1112.095356 -3777.066803 185 177 188
2687.359047 196.300316 4119.305420 25 27 37
2687.359047 196.300316 4119.305420 25 27 37
3610.695648 1165.307045 5687.171173 8 12 11
3208.863068 -1803.351974 4827.757645 54 65 78
3058.404350 -212.435102 4497.057724 29 33 38
2779.030609 -372.600007 3931.707382 35 52 66
2679.266548 -1154.155159 3563.994980 49 51 56
447.629786 28.503770 -712.057781 32 35 58
1170.172977 168.936217 -2078.773308 135 134 154
1334.677696 116.500235 -2410.052490 14 34 80
1146.146488 167.383432 -2059.679985 47 107 141
1146.146488 167.383432 -2059.679985 47 107 141
4482.896805 1844.027710 -8645.690918 41 41 58
2238.428497 661.795282 -4254.254532 141 135 146
2238.428497 661.795282 -4254.254532 141 135 146
891.265202 166.750920 -1590.008736 129 136 147
2214.228630 -478.093910 -4288.842010 44 78 103
9094.425201 2750.836754 -18278.231812 89 54 65
9578.155518 3458.039474 -19355.143738 86 43 50
9578.155518 3458.039474 -19355.143738 86 43 50
940.476704 156.837463 -1720.912743 143 131 136
-1022.782516 -591.714334 2332.532120 142 140 141
910.354614 152.050436 -1669.851685 33 33 43
-18459.355164 3078.042984 38581.805420 29 57 45
-18459.355164 3078.042984 38581.805420 29 57 45
718.738747 129.095852 -1276.901054 132 137 140
705.863333 -94.667614 -1250.274467 159 174 180
669.211817 -26.292002 -1178.439045 44 79 106
3064.259338 -391.305900 -6236.175537 26 50 63
3064.259338 -391.305900 -6236.175537 26 50 63
560.073233 58.449417 -950.354576 129 119 117
450.821781 23.915695 -731.482077 188 188 182
449.862528 24.846199 -729.610395 99 105 105
449.862528 24.846199 -729.610395 99 105 105
-2893.763733 -9167.710114 24429.669189 168 165 169
451.101637 22.774391 -742.121458 68 73 69
447.848082 28.009063 -715.682745 123 128 131
-1934.528160 -10255.800629 27177.819824 157 135 135
447.754145 27.505490 -717.066383 41 47 46
532.626343 504.707813 -2012.249184 177 149 153
448.093557 27.195594 -721.420860 17 17 87
447.521114 28.541073 -712.442636 41 30 17
432.979679 138.651931 -1028.657341 55 57 67
448.093700 28.067535 -702.897024 125 125 135
448.894739 31.579450 -694.845819 140 139 131
449.975729 32.685381 -689.983177 37 41 40
449.975729 32.685381 -689.983177 37 41 40
444.068289 29.532924 -723.333073 155 159 159
216.132665 -119.133973 -1480.041790 113 119 112
1248.704910 88.469225 1016.345596 25 31 38
1778.831863 506.694031 1980.997849 8 12 11
447.197819 28.438085 -711.987019 154 152 152
2640.449715 -173.695385 3663.343048 32 32 33
2495.056725 -322.198844 3365.560532 32 49 63
1713.047218 923.729992 1799.254799 59 58 62
2896.850777 1837.437057 4121.255493 219 210 205
1317.431736 -528.270674 958.971119 149 146 150
3730.152130 -1118.456554 5582.037735 90 88 82
-20052.256775 -4043.369293 38810.806274 45 105 139
-8339.605713 -3850.851822 16331.999207 129 139 154
-8339.605713 -3850.851822 16331.999207 129 139 154
668.255091 97.213656 -1149.299812 128 137 148
465.404940 31.094590 -749.190998 114 128 138
963.838577 272.493744 -1774.526596 88 48 55
963.838577 272.493744 -1774.526596 88 48 55
483.234262 33.917165 -786.093235 39 68 60
1393.971443 -459.694290 -2666.911697 133 139 146
602.579784 -47.028205 -1032.923603 163 173 175
780.887318 121.987617 -1403.642273 129 129 130
908.507442 212.866449 -1682.394409 70 51 55
959.528255 -20.035198 -1791.963768 36 97 141
269.443989 50.097972 -336.626506 42 98 138
402.770853 10.787664 -617.271328 142 123 120
1488.542175 212.945223 -2954.566956 88 67 58
987.155533 143.513572 -1901.893616 34 46 54
1321.527290 186.778772 -2725.454330 123 127 126
448.373413 27.431557 -718.234587 31 30 27
448.165655 27.491072 -717.766333 109 115 115
447.778463 28.191388 -714.617109 25 24 21
448.039436 27.530718 -717.553425 54 57 49
448.039436 27.530718 -717.553425 54 57 49
447.986507 27.557203 -717.413044 26 32 32
447.986507 27.557203 -717.413044 26 32 32
448.007822 29.294506 -718.319845 49 43 49
448.996115 40.309364 -746.333313 61 63 75
447.713947 28.408572 -713.618231 54 55 63
447.593641 28.695577 -709.096861 124 125 122
447.692347 28.596836 -712.432623 25 24 21
448.050880 28.944069 -700.863123 135 129 127
447.700691 28.589207 -712.990522 143 147 147
447.690392 28.561991 -712.420511 15 18 94
448.584795 30.316707 -703.431702 38 42 41
308.149838 -81.200629 -1210.787010 97 99 93
162.877512 7.284496 -1327.487278 22 27 36
-1514.716816 -676.452637 -4684.554672 8 14 13
310.224771 43.525463 -988.001442 121 125 124
-185.536253 87.060833 -1976.505089 29 34 37
-185.536253 87.060833 -1976.505089 29 34 37
-207.044673 126.070452 -2010.462379 65 61 62
448.285627 28.687304 -711.718893 37 36 40
176.137257 -65.904993 -1241.857338 103 112 110
58.772320 -122.096717 -1465.190983 102 111 109
734.655237 -131.034291 -1248.797989 185 189 189
734.655237 -131.034291 -1248.797989 185 189 189
780.949640 -29.749551 -1346.802139 34 105 60
649.167919 68.556362 -1101.179218 45 104 141
532.636261 65.951842 -877.584362 130 139 157
879.383659 197.996843 -1551.227283 59 82 106
795.941925 185.186672 -1397.492504 41 41 51
1004.650688 245.244288 -1812.106133 142 144 149
828.925228 147.303092 -1467.256165 132 135 151
423.105669 18.220872 -663.530779 52 48 59
437.100506 32.877764 -691.399527 141 150 154
495.927715 14.738123 -810.459614 45 79 104
590.667439 96.053636 -1006.910324 88 45 53
1352.995682 272.952080 -2576.677513 32 28 39
317.609358 36.015800 -441.979265 22 56 33
2328.416824 846.920586 -4632.260513 29 32 40
2328.416824 846.920586 -4632.260513 29 32 40
751.462269 132.647228 -1346.733952 38 33 42
489.743423 40.564179 -800.948334 118 103 102
417.053652 30.665818 -648.258781 23 57 75
586.276722 15.360200 -1004.947186 36 98 139
586.276722 15.360200 -1004.947186 36 98 139
646.873999 4.480677 -1132.988548 43 97 135
646.873999 4.480677 -1132.988548 43 97 135
570.927525 10.795423 -972.744465 33 97 140
667.305470 10.829723 -1176.302528 5 44 73
604.396915 101.277244 -1048.693085 120 102 102
933.567905 146.617699 -1755.301476 117 124 128
1085.254574 -311.936116 -2111.865997 172 183 182
447.723389 28.646564 -712.451077 40 34 32
447.639084 28.911135 -711.253166 118 119 111
447.378540 28.100324 -707.005930 122 125 128
447.695541 28.920919 -711.214924 27 31 30
475.358152 250.432158 -1317.810154 138 113 122
459.082556 125.484300 -982.902336 158 152 158
447.709274 28.919628 -711.214733 117 118 110
447.662592 27.531222 -709.316969 57 97 130
447.756910 28.862464 -711.465025 144 142 142
447.727966 27.990872 -710.753155 32 27 36
447.772789 28.933412 -711.154127 144 142 142
447.772789 28.933412 -711.154127 144 142 142
447.769833 26.895863 -708.033609 27 27 87
447.766829 28.954974 -714.045763 81 81 98
447.803116 28.935769 -711.141396 87 90 93
447.803116 28.935769 -711.141396 87 90 93
447.717810 28.630924 -713.187456 61 65 145
448.179436 27.501541 -695.802641 128 126 126
448.239708 27.519768 -698.994398 126 125 129
447.736311 28.556097 -712.797546 140 142 136
-585.574198 -342.641854 -2804.353333 9 13 12
462.163496 33.027723 -684.054279 109 113 112
1133.186340 -34.931615 654.789162 33 36 39
1133.186340 -34.931615 654.789162 33 36 39
319.899130 -15.920135 -961.855030 104 113 111
-4386.286163 -1842.850113 -10062.236786 107 112 108
349.517012 61.407030 -901.116085 135 136 133
431.314945 31.482565 -744.334888 56 48 46
365.655708 43.092117 -868.823242 42 35 36
680.078459 -100.707352 -1147.020626 185 189 188
1007.952404 139.882421 -1792.593193 46 103 138
579.551125 33.009946 -972.288418 98 135 152
-678.582001 350.720239 1566.735363 47 79 102
391.535115 15.724273 -594.966650 135 118 115
750.743389 -0.363534 -1351.839542 37 97 138
750.743389 -0.363534 -1351.839542 37 97 138
426.059628 25.422850 -664.231110 116 126 121
446.775484 28.467664 -710.799360 124 131 127
447.924280 28.810728 -713.590956 144 148 148
438.822365 -21.249275 -576.938152 179 152 153
447.557068 28.753841 -710.979366 121 127 127
477.571917 268.188691 -1366.154957 142 119 123
447.638369 28.842303 -710.503387 111 116 119
447.752857 28.671071 -716.086340 45 29 17
447.637081 21.380974 -688.923740 17 30 83
447.658396 28.563890 -716.733503 62 38 18
447.667599 27.042922 -719.423532 105 104 101
447.668934 28.234431 -714.294767 39 37 37
447.652721 28.528965 -715.927792 126 125 122
447.649956 28.528848 -716.012859 126 125 122
449.161673 18.367635 -684.797287 139 135 141
447.559357 28.170902 -714.612293 121 125 125
447.506475 28.113163 -714.954281 34 33 30
447.440577 28.058672 -714.937544 198 196 190
446.095371 28.138953 -724.437237 81 81 82
447.707939 28.569913 -712.818193 118 123 126
447.707844 28.567874 -712.823439 129 138 136
441.841984 24.796960 -732.451630 115 118 110
436.518717 21.387993 -750.163555 115 118 110
446.917248 28.691986 -714.582634 45 70 87
426.072788 20.776547 -756.709146 9 13 13
379.655290 34.849265 -848.683739 33 36 39
379.655290 34.849265 -848.683739 33 36 39
541.175604 14.525123 -527.666950 62 60 61
508.402348 49.690592 -594.721079 106 112 111
813.730812 170.283425 -4.941742 106 111 107
463.472223 19.780186 -742.300177 189 189 189
536.307240 45.712608 -880.403519 128 136 143
477.933693 32.823631 -770.586920 31 46 99
650.243282 68.769556 -1103.215122 43 109 145
405.204487 16.308381 -630.352736 120 136 148
385.670233 9.985463 -589.432240 128 135 146
454.540873 31.323037 -726.562452 64 59 68
446.968508 28.394115 -711.367846 88 49 52
462.275171 24.373379 -742.333794 45 79 104
463.451958 34.443721 -745.014334 87 44 52
379.488277 4.292896 -570.819569 131 136 139
472.704363 16.608107 -765.000343 159 174 180
472.704363 16.608107 -765.000343 159 174 180
427.232456 30.482253 -669.678116 37 100 139
427.232456 30.482253 -669.678116 37 100 139
433.348227 35.732192 -682.577610 68 102 127
474.378443 36.327347 -769.334221 137 122 121
483.032846 26.492253 -788.387585 18 52 29
501.184416 52.852380 -827.417183 126 107 104
501.184416 52.852380 -827.417183 126 107 104
447.795153 28.635490 -713.167286 144 143 147
447.778511 28.522345 -713.209677 127 133 133
447.944021 28.120646 -714.636803 188 188 182
447.691870 28.654987 -712.313604 63 62 54
447.728395 28.531754 -712.898588 197 195 189
447.797871 28.465289 -714.254951 117 122 125
446.694851 20.204772 -690.194464 139 116 120
447.851372 28.428337 -715.597677 126 130 129
447.728491 28.308344 -712.274551 36 31 97
447.736883 28.261390 -712.108994 134 129 138
447.736883 28.261390 -712.108994 134 129 138
447.737694 28.596523 -712.618113 131 124 119
447.764492 28.501815 -712.118244 125 125 125
447.730160 28.532311 -712.929058 39 39 33
447.926378 27.353764 -709.504938 50 55 71
447.977781 27.059337 -708.657455 50 55 71
447.760820 28.494421 -712.549543 24 27 96
447.792292 28.626910 -712.266636 140 144 144
369.430256 22.690825 -881.701660 33 35 45
369.430256 22.690825 -881.701660 33 35 45
398.530173 10.856433 -812.523460 9 13 12
-731.169987 -43.070954 -3070.215225 118 122 121
447.729254 28.534421 -712.905502 144 143 147
447.729445 28.534093 -712.904024 144 143 147
393.981719 37.772050 -819.949913 44 56 64
312.920880 51.613945 -981.335068 44 56 64
394.447589 38.135508 -814.973068 56 53 50
447.759914 28.541020 -712.837887 45 39 37
512.079382 -7.223207 -833.041477 187 191 190
447.723436 28.538489 -712.900925 9 28 56
456.186247 27.068618 -728.990698 34 105 60
456.657076 30.313653 -730.112410 48 112 146
448.342752 28.793487 -714.110804 145 139 150
463.483620 35.630339 -743.881416 36 40 54
463.483620 35.630339 -743.881416 36 40 54
441.100454 31.288555 -699.858522 162 170 172
458.345604 32.420298 -733.872414 136 137 145
442.117262 30.138201 -701.551437 47 81 106
454.145670 29.666248 -725.986767 92 50 49
454.145670 29.666248 -725.986767 92 50 49
538.052797 62.490433 -897.343731 87 44 51
451.336670 28.532779 -720.306396 104 131 143
451.336670 28.532779 -720.306396 104 131 143
418.417740 20.329632 -652.140665 140 137 141
463.628435 35.457265 -746.035290 29 31 41
463.628435 35.457265 -746.035290 29 31 41
453.494930 30.194056 -724.990845 87 74 81
425.051355 30.690190 -665.090084 34 100 138
425.051355 30.690190 -665.090084 34 100 138
446.832848 28.678486 -711.015320 23 52 64
446.832848 28.678486 -711.015320 23 52 64
432.084560 21.428505 -679.395294 125 106 103
444.021130 30.431944 -704.743767 90 104 107
447.686291 28.591678 -712.613583 135 138 130
447.719193 28.533414 -712.854528 114 119 122
447.730637 28.555629 -713.035297 42 26 14
447.589111 27.003857 -708.635378 144 144 154
447.722197 28.524363 -712.945366 134 131 121
447.720814 28.523791 -712.947178 75 75 75
447.721910 28.538638 -713.112879 122 122 123
447.720718 28.561494 -713.051605 28 28 86
447.720718 28.561494 -713.051605 28 28 86
447.720718 28.561494 -713.051605 28 28 86
447.723770 28.456441 -712.678480 134 125 162
447.719049 28.524783 -712.941790 110 104 97
447.719097 28.524926 -712.940788 113 108 103
447.728920 28.424987 -712.592125 64 57 143
447.700310 28.545049 -713.474369 57 33 18
447.708702 28.501263 -713.102341 22 22 87
447.719812 28.536949 -712.917757 126 126 127
447.640467 28.446487 -714.138269 33 26 65
447.692633 28.627521 -713.345671 67 87 107
447.634602 28.384766 -714.074183 21 22 84
447.720242 28.536099 -712.916231 121 93 69
447.692871 28.540102 -713.259411 128 128 129
447.744226 28.491825 -712.623882 45 31 19
447.720671 28.543371 -712.914896 66 61 120
447.721195 28.536427 -712.894630 21 22 103
447.721052 28.537548 -712.904692 56 88 125
447.715569 28.539309 -712.934589 127 131 131
449.272823 28.652024 -709.545851 24 29 40
473.954201 37.963593 -659.765482 13 14 11
454.151154 24.274209 -699.995232 55 63 77
435.771561 20.080493 -736.606359 58 57 61
460.743713 30.269867 -687.982273 41 38 42
457.738590 22.966789 -731.590509 187 191 191
450.088930 29.202068 -717.434645 29 49 95
450.897741 29.165250 -719.011164 45 113 144
449.490547 29.278770 -716.312408 130 139 157
451.326084 29.937488 -720.004797 140 144 149
447.280645 28.353286 -712.019205 146 142 148
448.831177 28.875911 -715.099239 135 137 147
431.597710 21.485139 -680.578995 89 85 91
448.337317 28.550994 -714.124203 22 58 83
553.715515 -1.777401 -927.380848 48 79 105
452.951860 29.948673 -723.654270 34 31 40
445.675087 28.863519 -708.635235 31 61 44
451.173210 29.815382 -720.075369 141 145 145
445.841932 27.715543 -708.972740 32 34 46
453.293753 30.731168 -724.506712 135 131 142
452.192211 26.401031 -722.192240 160 174 177
453.450489 27.615607 -724.978065 24 51 63
449.130058 28.908378 -715.870142 135 119 121
446.887255 28.607184 -711.106634 86 113 132
447.602606 28.716427 -711.869669 20 25 36
447.879267 28.328165 -714.237022 132 138 138
447.637463 28.662717 -712.150717 127 133 133
447.739267 28.543356 -713.049841 118 122 127
447.736311 28.546447 -713.029480 19 21 81
447.822475 28.560865 -714.132118 121 124 127
447.729111 28.555870 -712.990618 49 91 124
447.723389 28.526571 -712.920189 19 19 13
447.721434 28.534120 -712.873173 46 39 34
447.732782 28.520906 -713.096285 51 36 21
447.723055 28.539479 -712.924385 51 90 121
447.721910 28.533173 -712.871265 127 126 123
447.721100 28.543785 -712.844801 28 26 26
447.721720 28.536838 -712.901592 55 95 128
447.721958 28.541276 -712.855053 127 124 114
447.721338 28.505257 -712.719822 93 90 151
447.721338 28.505257 -712.719822 93 90 151
447.722054 28.549027 -712.807798 135 124 97
447.721386 28.532642 -712.884951 75 90 109
447.721386 28.532642 -712.884951 75 90 109
447.722340 28.543997 -712.842798 127 124 114
447.721577 28.530696 -712.881756 23 23 74
447.719812 28.494525 -713.176632 119 125 124
447.721004 28.567210 -712.988806 121 118 127
447.723246 28.543818 -712.843657 33 31 31
447.721338 28.533974 -712.894249 33 31 31
447.726059 28.552383 -712.812376 22 22 16
447.736025 28.480017 -712.652922 38 27 16
447.731304 28.571060 -712.735510 22 22 16
447.722721 28.534597 -712.867928 53 32 21
447.679186 28.661722 -713.586950 52 93 124
447.733355 28.522778 -712.716484 125 125 125
447.766113 28.578851 -712.216139 52 36 24
447.723055 28.533131 -712.868690 127 126 123
447.723055 28.528577 -712.869883 95 90 169
447.737026 28.498372 -712.704802 47 33 23
447.732544 28.524667 -712.787008 23 22 84
447.732115 28.524706 -712.805891 25 24 97
447.736931 28.526074 -712.768745 126 130 130
447.731733 28.526261 -712.818336 25 32 96
452.154922 28.864437 -703.325891 29 31 41
453.698826 30.680886 -700.787544 10 15 11
448.200178 28.216171 -711.930132 53 64 77
451.391459 27.882379 -705.916023 36 32 33
447.801495 28.489113 -713.043022 189 188 192
447.856140 28.570220 -713.149452 121 132 150
447.812510 28.507733 -713.066959 113 130 139
447.911739 28.618559 -713.263416 135 142 151
447.911739 28.618559 -713.263416 135 142 151
447.867632 28.591844 -713.177776 67 75 102
447.641039 28.505722 -712.734270 135 137 142
447.641039 28.505722 -712.734270 135 137 142
447.962570 28.609395 -713.371181 135 140 143
447.962570 28.609395 -713.371181 135 140 143
447.802305 28.573629 -713.054752 140 142 147
447.908449 28.468236 -713.266373 129 143 151
447.812271 28.507811 -713.077593 49 80 106
447.814894 28.563666 -713.083744 94 59 65
447.794962 28.569061 -713.045025 85 47 61
447.843933 28.532973 -713.146067 107 141 144
447.828770 28.579584 -713.116121 157 146 148
447.904205 28.573856 -713.272572 115 106 108
447.807312 28.491724 -713.071346 164 171 175
447.793579 28.564075 -713.043880 29 34 45
447.793579 28.564075 -713.043880 29 34 45
447.790766 28.564438 -713.038254 31 36 47
447.648478 28.507614 -712.739515 93 81 86
447.964525 28.504559 -713.407612 40 99 138
447.763157 28.607753 -713.085699 150 154 154
447.719240 28.533188 -712.881184 58 56 121
447.715282 28.543928 -712.851143 188 188 182
447.772694 28.686750 -713.301468 82 68 64
447.718430 28.532079 -712.872314 17 19 77
447.720909 28.534031 -712.892723 24 28 42
447.720766 28.533882 -712.891436 18 13 29
447.720003 28.532511 -712.883711 24 26 65
447.719669 28.534299 -712.877369 121 125 125
447.720146 28.532180 -712.883091 40 28 19
447.717333 28.537303 -712.840176 20 20 56
447.718287 28.529823 -712.849522 43 86 117
447.721004 28.534529 -712.895298 49 92 123
447.740078 28.690097 -713.317823 142 119 122
447.718382 28.536031 -712.839031 139 132 127
447.718239 28.526279 -712.829065 45 29 17
447.720957 28.534600 -712.897015 125 109 97
447.721052 28.539407 -712.907267 56 45 66
447.721577 28.559282 -712.964964 124 121 130
447.719908 28.529328 -712.812233 134 132 132
447.720909 28.528228 -712.918139 132 131 128
447.720909 28.528228 -712.918139 132 131 128
447.721004 28.541899 -712.913752 53 45 120
447.720337 28.520754 -712.813759 29 29 94
447.720337 28.520754 -712.813759 29 29 94
447.720718 28.530067 -712.812853 88 86 86
447.720814 28.529078 -712.821722 121 121 122
447.720957 28.527865 -712.866831 18 20 32
447.720146 28.573537 -713.001919 44 40 103
447.721720 28.527603 -712.810612 34 24 15
447.720242 28.542730 -712.917566 153 144 151
447.720194 28.543472 -712.918711 79 67 84
447.722292 28.527677 -712.847137 27 18 13
447.724009 28.537348 -712.840605 48 34 22
447.728777 28.526551 -712.791586 128 127 131
447.725630 28.521752 -712.837505 49 91 124
447.730446 28.523064 -712.798500 33 28 32
447.733927 28.526175 -712.768459 42 39 84
447.733927 28.526175 -712.768459 42 39 84
447.734404 28.555611 -712.765312 133 142 141
447.729111 28.529659 -712.817526 126 128 133
447.730780 28.523389 -712.802839 41 22 26
447.727394 28.530148 -712.837553 127 129 134
447.732735 28.525457 -712.803125 65 86 127
447.732401 28.528413 -712.807989 40 38 89
447.733164 28.529024 -712.806416 130 129 133
447.733545 28.525266 -712.803698 22 29 93
447.747898 28.527147 -712.813663 34 65 86
447.398996 28.418541 -713.543081 10 16 16
447.338295 28.787380 -713.658667 54 63 74
447.388792 28.564677 -713.553953 33 32 36
447.671270 28.529757 -712.990284 49 45 51
447.671270 28.529757 -712.990284 49 45 51
447.291422 28.384891 -713.727427 102 111 110
447.291422 28.384891 -713.727427 102 111 110
447.391748 28.406602 -713.528204 105 111 111
447.391748 28.406602 -713.528204 105 111 111
