ply
        format ascii 1.0
        element vertex 7135
        property float x
        property float y
        property float z
        property uchar blue
        property uchar green
        property uchar red
        end_header
-420.493364 174.769914 1117.918587 49 46 91
-210.684133 54.652268 1294.620228 92 80 138
-418.917561 273.821664 1106.070423 34 32 68
-418.295431 299.022222 1101.579380 45 39 58
-207.326818 -13.559155 1299.459457 29 19 49
-417.630005 275.652909 1102.545261 92 82 124
-414.052200 188.899112 1113.907146 72 65 110
-217.679429 -139.630842 1301.204491 29 27 63
-409.790182 263.725376 1107.730007 143 120 165
-224.681735 -166.228390 1295.742893 112 94 141
-223.713017 -169.894314 1295.776749 103 87 134
-414.898872 298.192167 1096.664906 55 39 56
-219.757915 -146.297288 1295.156956 103 83 136
-242.108464 194.273210 1239.507484 67 57 80
-229.045248 154.262781 1251.077271 51 40 78
-199.357903 1.358980 1290.322018 47 37 60
-198.870397 82.761461 1280.973053 34 25 58
-198.870397 82.761461 1280.973053 34 25 58
-219.224095 -142.154920 1290.443707 44 37 80
-222.817469 -171.290398 1290.795708 62 45 78
-199.397755 36.842427 1284.653759 38 29 55
-195.993280 14.386329 1283.571529 40 33 78
-400.513601 227.411890 1106.406975 125 109 156
-194.456744 93.784440 1274.277306 85 71 125
-194.456744 93.784440 1274.277306 85 71 125
-215.288401 -168.051052 1285.361004 100 88 124
-216.408229 -134.834838 1280.661869 116 100 154
-216.408229 -134.834838 1280.661869 116 100 154
-398.478270 249.187350 1101.417065 74 56 97
-407.935238 266.973877 1091.951656 141 115 161
-190.244973 50.675231 1275.404072 44 34 64
-190.244973 50.675231 1275.404072 44 34 64
-190.632915 35.683587 1276.659107 37 30 57
-189.542544 100.505090 1269.865322 37 30 63
-205.991364 -55.375862 1273.281574 93 74 117
-395.357800 232.322836 1100.553894 62 50 98
-191.520274 -26.918748 1278.030872 105 80 108
-205.094242 136.484253 1249.163342 48 41 78
-186.876142 52.547073 1270.688534 99 83 137
-196.048856 126.066732 1249.110413 67 54 108
-182.051456 39.294589 1267.857265 56 44 80
-193.902791 122.247851 1246.859169 120 104 158
-391.906905 264.456701 1088.159466 99 82 115
-208.611155 153.599489 1229.682446 118 104 146
-181.685519 110.703528 1253.022861 50 42 89
-181.685519 110.703528 1253.022861 50 42 89
-198.341525 -179.984772 1267.683125 104 86 127
-179.489231 97.309333 1249.949265 77 69 122
-174.147046 76.954055 1255.084038 122 105 119
-193.916702 -177.317667 1266.265011 29 26 48
-168.284702 -74.208468 1272.679138 16 17 38
-176.820254 79.690230 1242.930603 76 94 117
-160.162485 -109.268951 1271.309757 100 85 136
-166.907728 69.366091 1246.758270 140 143 157
-165.934134 -96.786129 1264.392471 83 74 124
-377.850294 250.342250 1080.861759 64 47 80
-164.405537 -23.857203 1255.061150 151 170 183
-163.931167 -135.867751 1266.417503 98 82 135
-376.853299 204.286194 1083.790207 95 84 130
-159.519196 -31.457368 1252.316570 153 169 185
-161.989141 1.932729 1245.658970 96 120 138
-164.614749 48.919204 1237.396812 47 59 93
-158.414268 -136.867976 1261.342239 42 37 66
-159.461045 -36.252362 1249.460125 36 29 66
-157.884228 -36.416596 1250.071526 36 29 66
-170.065677 79.001206 1221.513462 83 97 109
-136.992621 -74.773341 1259.539127 90 76 117
-170.819604 73.162800 1221.167278 24 20 26
-165.441227 -9.945286 1232.745075 112 129 150
-165.441227 -9.945286 1232.745075 112 129 150
-163.552427 -16.014335 1234.468174 131 146 162
-163.552427 -16.014335 1234.468174 131 146 162
-175.793767 66.951084 1215.890408 106 131 147
-161.677921 -16.384977 1232.485199 193 219 226
-166.711926 74.444830 1218.068981 56 73 86
-366.511416 206.183314 1073.868275 107 94 140
-163.609827 4.461605 1227.023125 139 166 180
-171.219087 48.480147 1217.290211 181 197 203
-366.872811 218.594718 1071.784210 98 86 128
-366.872811 218.594718 1071.784210 98 86 128
-163.871551 0.828338 1226.505089 175 193 204
-148.308969 -107.786024 1248.146343 91 79 129
-148.308969 -107.786024 1248.146343 91 79 129
-162.995601 7.186334 1225.948811 71 92 120
-162.995601 7.186334 1225.948811 71 92 120
-149.444234 -55.989051 1240.393353 64 79 105
-163.137710 3.048472 1225.141907 116 130 152
-365.256810 208.226275 1071.937084 48 34 82
-165.652561 73.978573 1214.963245 20 24 35
-135.875571 -76.487923 1250.250435 85 73 123
-170.627069 45.998806 1214.557266 76 76 92
-146.476769 -11.741642 1235.533810 162 182 193
-162.129462 76.546955 1213.545609 63 80 93
-176.242244 137.054670 1197.358608 96 74 116
-155.745471 8.262623 1221.008682 142 169 183
-173.579931 145.246732 1193.213463 110 97 143
-158.933365 -216.699457 1241.098499 54 39 77
-360.785317 200.793934 1067.782402 60 44 92
-171.042395 49.911609 1203.589439 145 138 145
-171.677971 69.833493 1199.992752 110 136 148
-142.863452 -65.738350 1232.108021 97 113 130
-147.943509 84.729820 1211.994267 34 33 72
-170.692444 142.129242 1191.274452 105 79 127
-358.934259 246.691394 1061.411190 125 107 148
-168.851781 151.436937 1190.842533 61 45 79
-138.750136 -109.394729 1237.713337 83 72 122
-138.865054 -114.233506 1237.255669 36 26 62
-139.170957 -128.405571 1238.518715 58 45 91
-356.723952 229.459786 1062.395954 71 52 77
-356.723952 229.459786 1062.395954 71 52 77
-136.592197 -60.611290 1230.514431 30 32 67
-136.476505 -111.998999 1235.393238 83 71 121
-164.893484 146.674216 1186.447144 71 54 97
-150.586736 -214.695835 1234.046459 103 86 137
-131.884146 -6.433176 1222.979546 137 156 169
-129.030001 -5.058136 1221.712112 180 204 216
-132.103467 1.456646 1215.797806 111 118 137
-127.324355 -3.942123 1217.752171 152 170 187
-126.324558 -144.977629 1226.852894 46 38 68
-230.646539 -188.249111 1165.053368 67 48 87
-138.831413 -214.766145 1221.685791 109 82 115
-131.454861 69.686103 1187.990856 65 59 82
-127.693450 -63.280386 1201.240158 83 71 107
-129.184413 71.401566 1185.000420 171 182 186
-128.229439 69.538856 1184.623146 90 88 110
-691.818523 92.613840 922.701550 41 30 56
-339.949703 227.047634 1043.740368 48 37 69
-129.427016 -175.301540 1207.431507 35 30 59
-129.427016 -175.301540 1207.431507 35 30 59
-339.334321 218.570733 1044.186401 63 45 86
-339.055228 227.275205 1041.471481 106 89 132
-141.406047 173.280978 1157.831573 77 70 97
-112.685943 82.834435 1183.397865 38 34 76
-105.862093 -24.285768 1194.549179 37 24 62
-105.862093 -24.285768 1194.549179 37 24 62
-104.859412 40.679979 1187.056541 39 31 61
-103.770363 -33.352917 1193.198586 33 29 70
-103.003037 -0.919381 1190.033340 68 48 93
289.281964 216.307974 1384.685040 52 40 76
-105.451953 -37.189111 1189.281845 102 80 109
-105.194581 -37.773508 1189.414120 102 80 109
-119.884825 -221.440768 1200.378132 67 48 87
-149.486136 182.124174 1138.226032 59 53 70
-121.182132 -173.816514 1188.661289 103 86 120
-328.236818 202.913165 1034.367943 58 46 82
-328.236818 202.913165 1034.367943 58 46 82
-101.272166 -75.630015 1186.211014 105 91 139
-114.409077 -162.662494 1186.213207 41 36 75
-94.547009 -15.384534 1180.613327 96 80 128
-126.524162 141.132402 1146.348190 64 53 63
-115.492141 -73.023224 1172.421932 115 98 142
-88.135618 88.808662 1165.124321 39 27 63
-87.316757 -2.622798 1174.567509 70 51 94
-93.942207 -76.209563 1178.633595 115 98 142
-85.192716 70.434147 1163.781071 103 90 144
-108.448327 -185.245597 1177.089787 120 101 152
-89.076990 -46.227086 1172.492218 43 38 69
-104.399848 -163.785410 1176.118946 43 37 78
-318.905020 215.630102 1023.066425 52 39 85
-82.854682 4.379079 1167.572308 36 25 63
-139.407074 38.311568 1142.800140 36 25 63
-79.802132 27.807313 1163.521576 57 44 82
-343.819928 284.278941 998.386574 100 80 79
-102.169883 -182.955217 1171.616840 36 26 49
-66.715711 -64.364308 1172.324276 38 36 66
-108.618343 140.363312 1128.011990 62 45 82
-312.463999 255.620241 1006.204605 98 78 107
-312.463999 255.620241 1006.204605 98 78 107
-44.620755 42.829016 1158.864975 95 86 136
-300.523615 194.852841 1007.118702 60 45 77
-92.708987 135.147238 1112.814426 122 100 148
-93.593389 -260.370350 1152.304745 35 29 54
-33.535761 37.075478 1148.236275 30 22 45
-55.258119 -191.084528 1160.751247 101 87 135
-302.355194 254.549909 995.827866 106 86 121
-96.477407 -269.010639 1147.782707 36 32 68
-28.702742 64.445287 1142.741776 32 27 58
-28.264683 0.349014 1148.290539 65 44 83
-96.394593 -266.024613 1143.104649 129 109 151
-27.872947 87.683052 1138.897896 56 41 85
-49.500936 -186.484623 1155.713367 137 115 143
-27.215236 -6.348321 1147.256088 43 31 61
-31.027609 -108.851349 1155.740643 52 39 71
-31.128252 -99.918014 1154.669857 50 36 72
-29.948354 16.385736 1142.001915 110 94 147
-30.981061 -111.835253 1154.402828 103 85 124
-25.494304 83.236134 1136.680031 62 46 87
-50.011206 -214.819431 1153.778744 132 108 132
-208.095622 332.814050 1023.076534 145 93 100
-25.573051 13.477287 1139.686012 63 52 98
-291.530323 195.684624 997.346497 57 43 91
-291.530323 195.684624 997.346497 57 43 91
-291.579151 238.633299 992.507172 70 47 99
-21.577694 71.225977 1133.237839 109 96 150
-179.149652 343.393779 1031.986141 58 41 44
-31.634372 -181.340969 1153.367329 40 37 82
-77.934963 131.935096 1099.067974 57 47 63
-24.547389 -195.005250 1156.455421 148 126 150
-288.262177 212.674642 992.615414 53 38 69
-288.462090 221.272755 991.615105 57 40 73
-35.596940 27.893382 1127.055645 72 53 110
-17.361948 -27.320892 1138.803673 55 39 80
-75.224644 159.164882 1092.296886 45 38 65
-75.224644 159.164882 1092.296886 45 38 65
-24.305765 18.573549 1125.165939 108 89 146
-288.651204 253.328109 982.425117 98 78 113
-36.469087 -219.715142 1142.204857 143 117 140
-31.209332 -150.569808 1131.387997 45 31 59
-73.688120 176.627481 1077.563000 87 73 114
31.569520 -265.182352 1167.138004 84 64 87
31.569520 -265.182352 1167.138004 84 64 87
-5.149052 -7.920630 1122.757721 93 83 129
-288.629699 283.919954 968.065643 73 54 73
-288.629699 283.919954 968.065643 73 54 73
-61.533546 154.100013 1077.950573 79 60 99
35.456905 -247.114682 1160.443687 99 73 103
4.566460 84.032512 1105.883026 58 44 86
-192.050326 -94.144464 1077.340508 45 36 86
-192.050326 -94.144464 1077.340508 45 36 86
2.419054 -55.069780 1115.905094 41 30 63
4.766110 74.368155 1103.668213 92 79 131
6.983475 78.070670 1103.808117 40 31 64
8.942596 20.712502 1108.270741 43 33 69
4.627081 -25.199240 1110.545158 50 36 77
3.068662 -53.739238 1112.787914 79 69 115
45.876491 -284.684515 1153.580284 79 54 80
-52.285653 130.621874 1067.353630 59 48 80
47.912309 -153.446317 1135.995388 98 79 112
7.678606 -7.135922 1104.311943 90 78 130
50.153017 -144.246089 1134.567833 132 111 133
9.915352 0.495502 1101.779366 83 70 124
50.967813 -144.800591 1131.989479 87 66 91
51.697344 -296.053314 1147.327137 106 77 103
12.722602 7.802764 1097.157955 75 66 117
12.722602 7.802764 1097.157955 75 66 117
54.371494 -284.261346 1143.343830 101 73 103
-262.407422 218.638515 964.865303 55 43 73
-40.427983 145.535445 1057.706833 56 42 84
61.135375 -328.419471 1144.134521 154 135 156
37.752694 -132.886243 1114.594746 126 103 131
61.258817 -253.654766 1135.254097 91 81 104
-39.283690 134.394205 1056.250095 121 105 146
-38.391957 125.278795 1055.797863 57 37 80
64.125323 -315.489697 1137.672806 134 122 140
65.613228 -256.029892 1130.541992 78 63 90
-33.654779 138.734019 1051.874638 115 97 150
-33.654779 138.734019 1051.874638 115 97 150
68.671829 -313.136649 1134.736633 94 69 97
-29.053113 122.363961 1048.875713 121 103 150
69.309199 -269.844365 1125.685501 145 121 133
-251.922798 237.164950 952.222157 82 59 97
-27.481249 124.446535 1045.991516 42 36 59
70.737004 -104.937625 1105.916786 144 121 143
74.476069 -229.983878 1119.199371 99 78 103
-249.474597 220.277619 950.409508 122 105 149
-27.343848 121.803617 1042.845345 117 100 143
-248.296046 210.973406 950.913620 121 101 146
-247.504640 216.018820 949.893284 58 45 91
76.164550 -140.954733 1105.302238 94 74 93
78.459805 -231.389713 1114.540768 98 80 109
78.334761 -143.286979 1103.640938 150 130 142
79.873741 -112.993085 1100.165081 71 55 72
78.978992 -166.623998 1103.674603 100 78 106
80.932873 -308.712077 1118.349743 96 75 107
-19.385436 138.685668 1035.478783 103 88 139
-19.385436 138.685668 1035.478783 103 88 139
84.111619 -110.528851 1097.202301 80 63 84
82.937884 -252.630520 1110.114288 91 77 101
82.937884 -252.630520 1110.114288 91 77 101
82.738429 -155.907333 1100.348091 101 79 114
84.410691 -146.073890 1099.603367 78 61 75
85.496706 -244.442773 1109.015656 96 70 94
11.845607 102.275085 1044.654655 55 49 108
84.101760 -110.193431 1091.236496 93 72 104
14.102975 99.199474 1041.890907 136 120 168
27.049050 82.692569 1046.674919 121 108 154
8.244755 113.087642 1035.368538 70 68 98
-9.007699 122.891557 1027.268600 123 103 148
95.123631 -220.339346 1094.531155 92 71 103
-4.770385 125.984275 1022.669792 39 34 49
97.797078 -233.260989 1092.967510 100 75 101
101.534474 -347.462249 1103.697395 88 62 86
98.137140 -101.737022 1077.728081 86 64 88
98.743957 -98.881394 1077.491379 91 69 93
41.498405 69.012165 1034.156132 119 103 144
42.104641 77.737719 1033.331299 50 45 77
109.986115 -152.163100 1073.755836 83 60 75
112.995732 -192.536354 1076.233482 94 74 103
21.561646 -24.231343 1029.062176 116 100 147
121.406126 -297.782135 1079.424000 152 128 146
122.242844 -71.849597 1051.974773 86 62 86
124.801815 -152.558982 1059.286308 64 51 67
124.272120 -312.100911 1074.814320 95 72 94
126.828885 -257.779908 1064.682388 152 127 137
128.997326 -150.801504 1052.940941 85 59 77
25.185102 116.675377 993.727016 110 97 143
131.374431 -206.699562 1055.329323 107 87 116
130.811322 21.461228 1030.919743 62 44 73
28.560263 147.557378 985.366631 76 59 102
140.427816 -264.218378 1053.159428 69 55 73
140.291941 -203.938866 1046.195221 141 119 143
141.605496 -166.451633 1042.156410 80 61 82
142.913938 -195.845246 1045.009327 98 79 100
140.584981 -83.667481 1033.286190 74 57 78
143.030214 -161.143374 1040.920162 88 70 87
35.983476 155.565786 978.182316 86 77 117
141.489518 -228.528881 1046.278572 129 112 133
143.192196 -164.573538 1038.779449 139 126 150
143.192196 -164.573538 1038.779449 139 126 150
142.831397 -78.806049 1029.900646 149 123 137
141.724944 59.497219 1015.348625 82 63 88
149.692810 -84.850287 1029.590702 87 67 90
144.484568 -39.287758 1023.232365 84 59 85
147.435069 -201.779985 1039.931202 81 61 90
147.435069 -201.779985 1039.931202 81 61 90
146.495187 -152.533805 1033.293152 150 124 140
150.540876 -243.225813 1042.477894 140 121 138
148.432004 32.094488 1011.332703 85 66 85
154.801619 -88.095111 1019.824791 80 62 75
155.712485 -240.194178 1034.193134 68 52 70
157.262075 -274.336100 1036.903954 97 78 95
159.484303 -264.974546 1036.105442 99 76 98
151.372945 73.409414 999.450111 92 78 106
151.372945 73.409414 999.450111 92 78 106
154.727232 91.960436 998.455620 47 38 48
154.727232 91.960436 998.455620 47 38 48
155.010271 56.620848 999.814892 138 126 144
160.819650 -242.145419 1029.681301 79 65 83
159.271049 59.964019 996.761799 78 59 84
159.271049 59.964019 996.761799 78 59 84
165.888548 -358.340478 1039.068222 116 83 98
165.043497 -228.572321 1025.391006 83 67 90
163.395357 -160.131085 1017.425919 75 61 85
163.395357 -160.131085 1017.425919 75 61 85
158.779991 72.187173 992.152882 152 139 163
171.224558 -200.634623 1015.363789 85 58 78
168.181813 16.708954 992.424107 89 72 99
170.798683 -227.597642 1016.677189 76 53 68
171.773612 -48.157355 998.581600 60 50 73
170.586538 27.351186 989.442062 76 61 89
169.430029 64.709556 985.390759 90 72 95
173.037541 -234.843540 1015.200424 97 72 82
168.708718 75.761402 983.476162 77 56 81
166.393340 121.394002 978.051758 141 53 36
169.661939 -4.078414 990.440464 150 131 148
173.078775 -44.329217 994.803905 147 124 139
166.166329 118.583703 976.492786 219 126 81
174.439001 -145.776081 1003.300095 98 72 88
175.844908 -237.890315 1012.007046 150 128 140
176.993895 -121.929252 1000.574398 69 55 73
177.240813 -263.378429 1014.278984 147 123 141
181.122887 -360.325027 1021.510601 99 70 95
175.333107 32.542512 980.397701 156 140 158
178.785706 96.141618 972.867012 139 123 146
178.597963 90.816915 972.782612 49 41 58
181.045365 43.970102 976.167965 139 124 151
189.715087 -358.707309 1016.783524 151 121 132
184.013236 40.928963 974.763775 150 136 160
189.841259 -321.892524 1010.877419 142 117 131
190.181959 -357.618666 1012.055874 90 60 79
190.889549 -364.323759 1012.292862 141 120 135
189.799547 -285.562110 1004.238510 77 48 71
191.665220 -282.741785 1003.444099 146 120 136
192.738986 -327.336597 1007.205582 70 45 59
181.307960 82.620943 965.002441 148 130 153
193.163443 -358.900070 1008.610535 148 122 138
189.021361 21.808653 970.540810 135 115 138
189.021361 21.808653 970.540810 135 115 138
189.970410 -61.469579 978.678703 84 64 87
192.388105 -334.199190 1004.872131 96 68 97
189.926398 -321.104670 1002.951050 149 125 143
191.399229 -82.729650 980.184937 88 64 82
187.304533 36.670572 967.286015 144 125 146
190.214026 -4.048595 971.759701 79 58 80
195.595551 -363.267064 1006.381989 91 63 82
195.595551 -363.267064 1006.381989 91 63 82
194.168472 -280.229139 996.899796 140 117 131
193.502522 21.338968 965.005970 77 55 79
193.609393 14.905684 965.068531 87 66 88
196.391022 -120.555449 976.125336 130 111 136
202.378774 -162.487328 978.247929 73 52 77
203.484011 -188.323283 980.322838 150 131 148
202.797008 -287.711787 989.160061 82 56 72
170.388222 256.989074 929.467392 91 68 83
170.388222 256.989074 929.467392 91 68 83
201.533985 -7.884315 960.052586 68 55 77
206.928444 -363.631582 995.271301 91 65 89
205.491948 -194.894302 978.299809 83 67 91
200.185990 179.851651 940.953159 82 60 85
204.291606 -122.572362 968.327808 108 96 118
204.291606 -122.572362 968.327808 108 96 118
207.113862 -182.560754 974.534702 86 68 97
207.072210 -162.492061 972.444248 80 58 82
202.829576 185.117543 937.364960 101 77 95
200.493360 207.085133 934.575653 99 74 100
204.036474 55.047661 949.644089 97 71 94
203.497052 86.008584 945.968723 127 115 133
211.909842 -364.630365 990.784168 95 68 84
209.125137 -200.657248 973.969555 140 116 134
206.612992 -50.692439 958.656597 143 124 143
204.518342 158.127415 937.609291 148 126 138
201.560044 205.661392 931.816292 145 126 141
211.309671 -171.815050 969.280148 131 115 138
203.551269 215.718961 930.050468 100 75 95
212.089252 -173.959804 967.152405 94 70 102
212.089252 -173.959804 967.152405 94 70 102
211.007690 160.606754 930.381775 97 79 108
217.734528 -362.062407 980.986691 151 128 143
219.826841 -365.591741 981.606388 91 60 75
214.775825 183.170688 927.793217 75 61 79
215.641236 -121.369708 955.995941 141 122 137
216.181231 30.003291 939.244843 151 134 155
221.763873 -53.544784 946.020317 50 35 56
221.763873 -53.544784 946.020317 50 35 56
222.286654 -53.589904 946.037865 50 35 56
219.556427 125.348592 928.061008 83 60 88
223.134685 -121.615756 949.632454 139 121 138
223.460984 -45.299929 941.804504 139 122 143
222.760201 -17.393745 938.067818 153 136 150
222.760201 -17.393745 938.067818 153 136 150
223.488879 88.382441 926.442814 147 131 148
226.616669 -292.826843 963.108063 142 124 141
229.444909 -288.660598 961.819267 80 62 69
224.266338 110.676372 922.288227 92 72 101
227.805090 -94.679493 942.379284 71 50 75
224.482822 102.984869 922.712135 92 74 105
224.482822 102.984869 922.712135 92 74 105
224.370003 95.810586 922.896671 80 65 93
228.383255 -214.228225 953.087807 95 73 98
230.505705 -188.404453 950.928497 151 130 152
230.505705 -188.404453 950.928497 151 130 152
230.949545 -259.577346 957.513714 109 80 96
229.834366 -10.543159 930.969810 150 128 146
224.152589 147.612691 914.617538 147 131 149
230.618238 40.554893 923.938560 83 64 85
231.214380 34.723830 924.540901 79 57 81
237.269402 -363.178420 963.140678 96 66 91
225.103641 216.355753 905.732822 156 137 154
237.794971 -290.900183 955.252457 85 63 82
240.789104 -332.877064 956.693077 99 71 84
240.377069 -367.368031 959.267712 102 76 94
232.684541 225.402308 901.548862 65 56 69
235.347342 122.803211 910.418892 86 68 97
232.849550 120.823300 909.691143 140 127 151
235.220742 76.613003 913.134098 155 137 166
239.773774 -14.446720 920.750523 83 63 82
236.856174 172.987318 902.011299 96 81 112
244.193673 -367.899752 954.427719 107 78 103
237.123108 121.530521 905.244255 82 58 82
239.485002 153.800011 902.547073 137 124 138
237.261009 227.387285 894.180584 145 126 141
250.711894 120.498276 890.823841 64 53 73
250.711894 120.498276 890.823841 64 53 73
232.267094 277.837276 869.476986 110 99 115
257.116246 219.838357 874.707890 60 42 65
256.903911 166.503525 878.036594 96 80 114
268.350291 -97.078955 900.360203 108 75 90
238.487387 265.769744 860.847855 255 196 177
-99.508327 127.287698 822.263336 143 118 116
270.498204 159.812510 863.477039 170 157 179
254.280567 262.856793 843.960667 255 197 181
254.280567 262.856793 843.960667 255 197 181
-489.648342 342.835641 1536.450863 105 102 88
-437.550116 318.418837 1581.029320 136 121 125
-437.730646 -51.061690 1623.945808 131 107 117
-434.167480 293.821430 1582.945728 122 101 104
-435.456324 -38.325498 1619.962120 86 64 83
-435.309792 -89.823598 1625.861931 40 27 29
-434.428740 15.423599 1613.386536 132 107 117
-434.360886 -3.251308 1615.212059 82 64 81
-433.313417 118.536246 1600.635147 65 47 54
-433.698606 -92.263979 1622.434425 123 97 110
-430.826283 157.873428 1593.343639 134 110 122
-428.695107 212.017584 1585.168076 69 53 60
-426.773071 291.695762 1575.523186 57 46 56
-426.224136 137.688255 1594.599819 134 106 112
-425.288391 29.603446 1603.199959 73 58 72
-425.750017 -7.212648 1607.162476 82 64 81
-422.233915 134.270823 1591.488934 58 50 57
-423.748541 173.384714 1581.986237 177 132 121
-423.698235 173.566985 1581.997967 177 132 121
-422.750998 -20.379402 1605.693817 88 64 74
-419.950819 105.398190 1590.385246 63 49 61
-420.547628 170.024967 1581.179905 56 27 18
-419.763088 17.456909 1599.383259 52 40 52
-420.898676 -62.088072 1606.429291 87 63 75
-419.537640 162.020826 1579.106522 45 27 20
-417.848206 46.933374 1595.059490 117 91 104
-418.400669 217.214346 1572.662735 88 65 69
-414.233541 222.268009 1568.287754 138 114 126
-414.233541 222.268009 1568.287754 138 114 126
-413.439083 200.931525 1570.509720 114 99 107
-413.439083 200.931525 1570.509720 114 99 107
-412.593269 25.097272 1592.601490 120 97 119
-413.397026 149.906158 1575.868702 250 180 163
-411.583090 60.442495 1587.667656 58 47 55
-412.394714 -20.756727 1596.263123 53 41 47
-411.261702 255.405140 1561.257076 39 31 38
-412.793541 -10.715709 1592.947483 135 113 131
-411.067295 -129.114819 1607.300568 44 36 43
-410.589314 -17.941980 1593.350124 93 61 80
-408.595753 102.770591 1578.671551 114 98 116
-407.624912 104.125082 1579.141712 73 53 66
-408.963966 220.947266 1562.481785 130 110 123
-409.145451 161.072826 1569.423962 53 31 25
-408.526897 -18.007967 1591.012955 91 63 83
-407.841492 -129.261470 1603.186607 57 42 50
-407.343340 153.888619 1568.193150 59 32 22
-407.838440 -62.113619 1594.003296 72 49 57
-407.838440 -62.113619 1594.003296 72 49 57
-406.199312 78.597200 1576.458645 130 114 131
-406.390715 -6.437664 1586.558723 88 69 86
-404.600620 32.364357 1583.085537 59 42 56
-404.541206 60.005057 1579.630852 55 38 47
-405.374670 15.339594 1583.887005 68 49 64
-404.070997 182.673514 1561.366558 117 94 102
-402.486134 153.097951 1566.209126 96 58 56
-402.736616 64.049649 1575.256252 133 112 127
-400.772762 253.851128 1552.662849 58 43 47
-400.460482 178.439772 1561.192036 109 86 94
-401.328802 -88.741326 1592.095661 130 103 119
-399.581242 192.527592 1558.448124 73 62 72
-397.166538 195.776987 1559.225464 41 33 33
-398.772669 191.209972 1557.019615 46 37 50
-399.748635 -6.423923 1578.882885 90 70 89
-397.170234 191.863847 1555.362320 59 47 69
-394.268012 157.860887 1559.246826 125 104 112
-394.771457 222.045350 1550.148296 57 42 50
-395.305967 1.850018 1576.259422 124 104 117
-393.067575 288.721180 1542.290211 45 38 45
-393.379450 237.005186 1545.202351 121 99 111
-393.379450 237.005186 1545.202351 121 99 111
-390.841675 -135.172069 1586.785126 120 101 116
-388.754201 245.844197 1540.576077 113 99 123
-390.060902 -137.404168 1585.546112 59 49 65
-386.821437 276.253366 1534.436893 52 41 44
-386.821437 276.253366 1534.436893 52 41 44
-386.550331 219.593358 1540.621567 109 92 106
-384.970927 103.869605 1556.161594 128 110 123
-386.245370 10.797536 1566.253090 38 31 38
-386.547041 -29.369438 1570.486164 129 102 122
-386.494613 31.966934 1562.625885 135 110 124
-384.430289 101.265705 1555.929470 86 62 72
-385.891604 31.799918 1562.975883 135 110 124
-384.772253 221.757054 1540.171051 62 50 56
-385.578179 56.560278 1559.761047 47 37 49
-384.186506 64.441210 1557.340145 45 28 37
-384.186506 64.441210 1557.340145 45 28 37
-385.508943 -59.025156 1570.863342 118 99 120
-384.429741 -135.888159 1581.066322 66 58 75
-385.302615 -141.506767 1580.452538 117 98 119
-383.661366 57.329029 1557.343006 111 91 110
-384.371114 -64.856440 1571.029758 117 94 116
-379.111910 157.005560 1544.001293 64 45 60
-381.215835 -76.850444 1570.490646 76 53 61
-379.844761 100.695407 1549.419498 48 40 50
-379.844761 100.695407 1549.419498 48 40 50
-380.656433 -93.771940 1572.120571 107 81 99
-377.658892 129.646909 1544.190025 116 92 102
-378.128624 135.608482 1542.103100 112 94 101
-389.130926 330.328441 1506.607246 36 32 31
-389.130926 330.328441 1506.607246 36 32 31
-376.682544 151.321232 1540.286732 101 82 91
-376.235032 156.826711 1539.741611 51 36 50
-376.235032 156.826711 1539.741611 51 36 50
-377.364063 -62.911314 1565.322971 52 38 42
-377.364063 -62.911314 1565.322971 52 38 42
-375.160289 169.995916 1538.539314 43 39 50
-375.960660 100.327229 1545.799065 45 40 55
-373.331356 152.555096 1539.154434 43 31 43
-373.331356 152.555096 1539.154434 43 31 43
-372.609973 262.925434 1525.710487 54 36 43
-373.993993 98.862243 1542.908669 103 99 111
-373.718810 74.874419 1545.577145 45 34 50
-373.099661 85.933691 1544.112396 63 46 67
-371.830964 142.903411 1536.427879 25 21 27
-370.353603 100.421190 1541.449261 52 45 50
-373.052168 -132.388937 1567.024803 71 52 61
-373.052168 -132.388937 1567.024803 71 52 61
-370.886111 55.607414 1545.677853 65 51 63
-369.546175 10.998159 1551.285648 41 32 42
-370.462036 -96.071118 1562.182140 61 35 51
-370.462036 -96.071118 1562.182140 61 35 51
-368.814397 195.308948 1527.380848 92 78 89
-369.546604 81.493825 1538.427258 120 107 129
-366.648364 55.379802 1543.715858 61 48 62
-367.105746 206.529307 1524.282265 107 94 102
-369.650435 -117.479408 1561.092758 79 64 85
-369.650435 -117.479408 1561.092758 79 64 85
-366.714430 16.539177 1543.199825 116 97 118
-367.193151 -107.846105 1557.646751 75 57 80
-364.484286 84.157950 1534.375381 60 53 74
-364.536428 -31.890506 1548.168945 124 105 130
-362.579346 212.868690 1518.716908 99 76 90
-357.902741 251.703310 1513.346672 35 28 31
-359.684181 212.117147 1516.322803 41 27 33
-359.699249 113.674271 1528.108120 47 30 39
-358.358622 -94.240904 1550.785923 142 118 130
-359.290886 14.239927 1536.635971 80 61 82
-356.382656 191.031396 1514.210224 51 40 50
-351.107669 50.037789 1529.823112 32 27 42
-352.243638 24.774984 1531.193256 59 48 64
-352.243638 24.774984 1531.193256 59 48 64
-351.895595 191.187406 1510.489368 46 32 43
-352.209210 -72.977531 1542.196178 58 45 53
-354.921937 -166.365278 1550.588703 55 49 60
-353.640962 -114.811063 1544.501019 80 63 90
-353.640962 -114.811063 1544.501019 80 63 90
-350.280404 55.899197 1525.246525 52 37 45
-348.102617 241.463614 1502.815247 36 28 39
-348.902082 265.787911 1497.447872 39 36 52
-347.214842 121.968818 1515.174103 58 51 66
-348.100209 53.339744 1521.297455 114 91 106
-346.998096 -71.028548 1535.891628 113 94 119
-346.518254 37.056750 1522.255993 56 46 59
-354.863739 318.625116 1479.905033 58 44 48
-345.362735 146.077013 1507.547283 90 78 98
-344.047546 -139.231491 1540.221024 69 51 74
-342.999291 170.265079 1503.290272 33 27 38
-343.515253 -68.737751 1531.630421 56 41 62
-341.965508 -29.541543 1526.876926 45 41 53
-343.328142 18.221222 1519.801998 60 47 69
-343.328142 18.221222 1519.801998 60 47 69
-341.557074 144.732237 1504.021549 38 31 36
-338.070273 188.932192 1500.063515 28 23 25
-340.518641 -66.160375 1528.670311 83 65 88
-339.721298 -162.504041 1536.332893 131 104 124
-337.938738 -69.007790 1525.965405 48 39 59
-336.015177 -101.117921 1527.623558 63 50 74
-334.908247 10.106060 1514.021873 120 101 122
-335.092020 3.700607 1513.481140 95 79 96
-333.977842 -141.274381 1529.629230 72 59 81
-333.283615 163.692451 1492.704678 56 47 50
-333.624601 -180.710137 1532.990837 72 50 74
-333.283925 -149.873090 1529.051018 77 61 92
-330.713677 217.529249 1486.626911 98 75 83
-333.056641 -14.831533 1512.400341 71 60 86
-330.830169 -150.840664 1526.566696 86 64 93
-329.089999 93.002993 1498.341846 56 49 64
-327.910209 23.226729 1503.950691 59 49 66
-326.246285 -147.241569 1523.016453 69 59 65
-326.390505 -159.572315 1524.171066 66 49 63
-324.715757 -164.636254 1521.951771 119 100 119
-324.196625 -164.763570 1522.193623 119 100 119
-320.280409 191.389477 1479.288673 112 90 92
-321.444845 24.943213 1497.661400 70 51 60
-318.413401 2.182691 1497.018623 128 116 134
-317.733669 -106.902719 1509.483624 61 45 56
-317.533946 -110.583985 1509.534264 60 46 52
-316.462064 23.483750 1494.043159 40 37 52
-316.528916 0.628016 1496.336174 62 49 71
-315.771723 -121.556354 1510.954094 52 38 44
-313.664174 -40.459815 1498.298073 61 49 69
-312.006879 -184.820795 1514.966011 45 38 45
-312.718868 -102.748168 1502.400208 126 102 114
-311.519432 -69.693619 1498.633766 58 49 75
-311.545801 -1.329555 1489.595985 125 107 136
-311.082172 10.307303 1488.487911 128 104 128
-308.693027 117.549503 1476.564407 34 23 33
-307.732797 3.077341 1487.136841 49 43 60
-306.815362 -142.450523 1503.120995 115 104 124
-307.081771 10.707894 1483.839035 35 24 34
-305.133152 -165.563321 1504.859066 134 108 131
-304.908681 0.551446 1483.179092 78 64 88
-304.671955 4.703919 1482.801628 133 114 123
-304.791522 -1.613830 1482.950115 127 115 137
-304.301500 -3.718995 1482.929134 86 68 97
-304.301500 -3.718995 1482.929134 86 68 97
-303.285456 -105.976760 1494.989300 53 37 48
-303.016210 0.900821 1480.960464 79 60 77
-302.598119 -0.917617 1479.998684 137 122 126
-302.561092 -71.277273 1488.242435 65 54 80
-302.277017 -170.459783 1500.166416 57 44 60
-301.826072 -132.377839 1494.945240 124 109 130
-300.781488 -134.832108 1495.728016 59 44 58
-300.781488 -134.832108 1495.728016 59 44 58
-300.156832 -137.718439 1493.978691 112 93 120
-297.272444 -10.618503 1477.974033 67 43 55
-297.098351 -13.717085 1477.924538 72 49 63
-377.529454 203.870797 1390.839386 104 88 135
-292.942262 -153.970718 1490.790081 63 42 57
-350.198507 145.542157 1409.960842 123 105 158
-290.875840 -143.014896 1487.783623 125 108 112
-292.845225 -117.642391 1483.154297 78 59 92
-290.779901 -72.917354 1479.173946 50 37 53
-290.492702 -37.174866 1473.110390 118 97 119
-367.039633 181.885481 1388.239479 22 23 33
-288.676238 -143.535233 1483.510399 121 105 123
-368.943644 252.632618 1376.310921 30 30 36
-286.859679 -86.048347 1475.784206 78 57 72
-365.361691 159.837794 1388.791752 87 75 117
-285.721040 -183.251250 1485.160065 122 100 128
-367.121029 272.306705 1372.210407 45 40 55
-364.110518 185.226262 1384.469604 27 29 37
-360.697365 186.306047 1380.746269 81 74 117
-279.281545 -38.203150 1462.286091 60 41 60
-359.034109 164.599776 1381.652164 88 71 114
-357.688498 183.764672 1379.489040 46 34 70
-342.576790 19.692487 1405.075264 24 20 45
-275.577402 -36.181355 1457.754326 72 48 66
-323.938847 115.744901 1405.734730 100 83 116
-323.938847 115.744901 1405.734730 100 83 116
-341.368794 16.358456 1401.990795 96 83 135
-274.160409 -71.552318 1458.244419 44 36 53
-272.116923 -140.953815 1466.541386 52 41 61
-304.172730 81.382698 1415.849876 41 31 67
-353.214169 291.601968 1355.881596 96 79 116
-269.358706 -107.439792 1459.041309 61 48 64
-269.440532 -72.140634 1454.768753 59 43 66
-268.842363 -198.813868 1469.476032 134 115 136
-268.800449 -43.057540 1450.846195 126 108 137
-348.613048 153.528428 1372.751808 126 105 130
-267.831373 -194.314277 1468.431568 132 109 123
-307.359290 63.620955 1410.187721 33 30 69
-265.949130 -190.971673 1466.599464 66 41 55
-266.171241 -110.158741 1456.722069 111 96 117
-266.156006 -110.202825 1456.729698 111 96 117
-266.335559 -186.436653 1464.703846 134 116 139
-345.408559 186.210036 1366.272163 40 34 57
-259.676981 -107.111132 1451.443768 69 47 66
-253.827071 -108.022928 1445.654202 48 32 49
-336.815286 165.880835 1359.212303 40 29 49
-340.784907 292.696977 1339.375019 43 38 53
-251.331520 -173.587751 1446.537781 67 55 75
-249.540114 -192.045832 1449.361038 62 50 72
-338.332009 294.102883 1327.117348 85 68 105
-242.734838 -110.068762 1433.307076 48 39 52
-324.132705 167.914879 1346.463585 50 42 65
-270.335031 107.025874 1385.924053 64 62 114
-323.217273 171.768582 1344.936466 96 79 130
-323.217273 171.768582 1344.936466 96 79 130
-269.091082 109.565067 1385.098934 23 17 42
-239.981341 -172.938740 1435.749817 139 115 127
-239.367175 -176.985490 1435.151482 76 64 94
-234.676814 -227.268171 1435.107422 80 58 87
-270.373082 86.795539 1376.650429 22 19 58
-316.847038 180.080092 1337.162685 39 33 58
-316.847038 180.080092 1337.162685 39 33 58
-254.972672 51.507169 1378.289795 40 29 69
-243.534088 -125.688314 1403.816509 23 24 52
-254.112458 66.633689 1374.372005 71 64 115
-307.960033 176.477706 1328.482628 94 82 134
-322.280073 198.494089 1316.728020 28 27 36
-304.319143 169.839454 1325.292492 100 86 134
-253.129768 -45.285878 1377.488899 64 56 103
-248.101187 18.421265 1370.649719 36 27 53
-215.784144 -234.069657 1417.933369 61 41 53
-243.955636 49.911773 1363.706779 30 24 41
-238.627863 88.386947 1356.673813 27 24 46
-240.070820 41.984418 1360.332775 39 28 60
-238.059211 -5.295410 1364.186096 67 59 106
-234.954381 92.599565 1353.381920 28 22 45
-235.350275 -1.332976 1363.264942 32 26 51
-256.021929 -125.284755 1360.344410 44 31 55
-286.979485 158.182716 1309.336853 97 86 132
-240.879965 52.960157 1341.913795 86 75 125
-225.140262 90.971226 1342.733669 45 34 74
-224.417353 -50.558048 1355.143738 34 27 60
-279.049277 159.405792 1301.999855 62 44 85
-419.368935 185.101664 1220.163059 51 42 85
-418.737555 185.043609 1216.340542 45 39 80
-418.708420 184.989095 1216.349697 45 39 80
-215.445471 -56.022644 1344.708061 28 20 43
-240.640330 -189.305818 1343.144035 88 68 111
-266.881156 172.335577 1288.374329 69 55 89
-266.881156 172.335577 1288.374329 69 55 89
-237.989354 -182.156229 1342.794228 95 72 110
-235.724592 -176.276052 1341.995430 87 68 107
-235.724592 -176.276052 1341.995430 87 68 107
-207.116199 -53.536922 1335.731220 21 20 40
-203.645110 35.532102 1325.884628 33 24 50
-213.468170 -170.070279 1332.419395 15 14 18
-410.803509 275.455117 1185.459995 49 40 60
-235.178995 136.141670 1285.076141 123 104 153
-244.638300 148.566794 1267.915535 52 39 77
-207.604957 -11.356699 1298.173332 30 22 45
-204.802823 83.355814 1287.221813 28 21 56
-203.975582 -14.280429 1294.584751 70 61 111
-228.963089 -165.969312 1299.342537 34 29 60
-223.625445 -186.931038 1301.000404 85 69 117
-199.564445 17.236012 1287.975788 26 18 48
-202.584291 -21.093911 1290.587711 26 20 45
-225.606060 -165.741491 1295.280838 109 90 133
-407.741499 231.786776 1169.723415 27 26 60
-198.779285 -15.645063 1287.628555 30 29 55
-231.130457 173.333943 1251.091290 70 53 97
-194.813979 100.579727 1274.138355 98 83 134
-194.804132 84.413528 1275.631714 88 75 129
-194.804132 84.413528 1275.631714 88 75 129
-198.600483 -21.388137 1284.984016 107 84 106
-410.985041 271.740127 1158.113766 48 39 52
-214.109397 -212.862277 1294.158840 88 70 111
-189.647901 81.648308 1271.551323 26 20 51
-189.701569 44.592136 1275.222301 88 75 129
-188.393867 73.491234 1272.189903 53 39 73
-214.822078 -168.296540 1285.588837 94 77 110
-214.840913 -170.417750 1284.127045 40 29 61
-211.793852 -172.449720 1282.058048 97 81 115
-221.361446 149.516380 1241.350079 58 44 72
-182.648671 81.924582 1264.793015 30 23 50
-207.839251 -156.350398 1279.228210 108 93 137
-182.220232 -15.002346 1274.021149 35 26 52
-182.271206 39.101729 1267.943001 41 30 70
-210.110068 -199.954152 1281.449699 47 39 79
-174.487054 42.113701 1268.805122 87 74 126
-202.166557 -148.810124 1277.849579 106 83 128
-177.571070 -69.954515 1275.759602 90 77 131
-180.854619 110.667849 1253.364468 37 34 79
-198.700476 -212.800646 1282.069683 54 38 72
-177.153540 77.647084 1257.687950 32 24 54
-177.153540 77.647084 1257.687950 32 24 54
-407.850361 241.208982 1143.123627 35 25 48
85.687661 200.267529 1346.413231 51 38 76
87.253714 202.449346 1346.014404 69 55 89
-209.607434 155.112159 1231.178665 72 54 91
-207.983184 151.350474 1230.030632 55 40 78
-207.589674 147.497010 1229.828358 110 90 135
-170.932782 -79.922831 1267.209244 85 75 117
-170.932782 -79.922831 1267.209244 85 75 117
-169.120479 -87.020063 1266.113663 21 22 50
-192.935896 -177.910864 1266.721058 29 28 48
-202.731609 166.893852 1222.066402 63 48 86
-202.731609 166.893852 1222.066402 63 48 86
-164.728010 -92.577356 1264.513683 82 72 118
-216.929674 189.869857 1212.166500 62 57 78
-216.929674 189.869857 1212.166500 62 57 78
-174.522090 79.798907 1233.316135 63 79 96
-161.113036 -6.722546 1246.469975 115 142 156
-159.353530 -12.822293 1246.320438 141 168 178
-420.373726 287.303853 1113.185978 42 39 71
-147.459996 -39.332777 1245.870972 39 34 61
-151.315200 -127.401471 1251.820946 46 34 64
-164.629042 -13.889126 1233.715057 182 203 211
-165.631104 -9.904535 1232.671833 106 117 137
-144.329488 36.737046 1235.174751 107 133 147
-143.574905 34.396082 1233.821583 57 75 104
-142.812860 30.674648 1232.968426 86 118 137
-163.077807 7.196131 1225.918293 74 91 118
-139.946949 29.693171 1230.191994 40 54 82
-410.099459 263.525963 1107.638836 140 116 156
-418.123150 275.519276 1102.387714 90 81 114
-417.753124 267.853761 1102.156258 143 116 159
-170.276165 49.267218 1212.571907 64 66 74
-179.047358 57.113123 1208.268452 114 126 136
-174.399805 52.917111 1209.456444 137 141 146
-143.815136 -1.298529 1223.935604 143 156 172
-176.059794 136.929870 1197.432327 88 66 108
-153.748405 84.267968 1210.038376 32 33 61
-173.770905 167.258239 1193.033028 72 52 94
-413.741970 260.849810 1099.065495 138 115 160
-185.777473 186.975300 1183.247280 57 54 69
-180.389082 179.155314 1178.374863 129 111 140
-127.117634 7.491341 1212.852383 44 42 84
-121.686602 -97.315520 1219.088840 76 67 110
-117.244172 -86.289227 1212.730694 85 69 110
-117.244172 -86.289227 1212.730694 85 69 110
-169.092333 184.526575 1164.784718 59 49 61
-168.898189 181.628835 1164.929295 56 45 53
-135.541832 -216.724277 1218.738174 56 39 76
-152.304113 148.826218 1173.135376 66 50 91
-117.056441 93.467391 1188.360882 30 25 52
-147.839749 141.724169 1171.462250 119 99 141
-124.902046 -176.025903 1208.878422 32 25 46
713.897085 1.339791 1441.841125 88 74 132
-106.148803 -22.511765 1193.647575 33 25 56
-102.437317 93.263108 1180.871677 48 33 71
577.663231 17.444612 1401.687908 28 21 56
-106.860757 -37.971669 1188.950062 100 77 105
696.986771 -336.939979 1456.423283 80 68 104
708.492422 -128.419435 1429.463959 26 20 45
-126.707697 -180.844426 1195.059204 75 63 105
-97.443968 25.966668 1180.173302 32 25 52
-126.248372 -184.753823 1193.668461 41 29 49
-125.709450 -178.330874 1192.030621 48 39 65
715.736198 -117.312634 1423.459625 30 29 55
723.608303 -60.046238 1415.692616 35 32 71
-116.675127 -156.703985 1188.470745 110 90 135
-383.178544 168.735194 1078.205395 80 61 110
703.246212 -407.838869 1441.599655 43 34 67
-88.106853 39.756498 1170.637417 37 29 59
-516.339779 193.439150 1035.359764 79 55 89
-90.489537 -33.692858 1174.458218 34 25 58
-84.567851 86.491704 1161.728859 99 87 139
-113.963330 -178.103185 1182.277775 79 65 99
-113.963330 -178.103185 1182.277775 79 65 99
-365.419531 208.328056 1071.887302 43 29 70
-365.408850 201.968384 1072.260666 37 29 66
-363.105631 248.352098 1065.423393 128 104 144
-378.072405 294.776678 1056.278706 162 140 134
-111.126077 -178.246748 1176.662636 98 79 122
705.788374 -383.698273 1413.777733 36 31 70
-361.214137 248.418570 1062.855911 77 60 103
698.716497 -420.375633 1412.711716 97 81 115
-361.175632 241.341925 1063.355732 48 34 75
-359.498715 244.744205 1062.228680 80 62 109
-361.864328 267.671084 1045.504570 49 36 60
-32.844806 27.142325 1148.655128 27 18 44
-28.823388 -29.688770 1152.917480 39 30 57
-28.823388 -29.688770 1152.917480 39 30 57
-30.576542 18.338010 1145.081234 33 27 52
-30.576542 18.338010 1145.081234 33 27 52
-27.899182 65.347767 1139.036751 92 82 129
-27.899182 65.347767 1139.036751 92 82 129
-27.411422 -10.202809 1146.900940 104 90 132
-26.620156 -10.243450 1146.895599 104 90 132
-34.439954 21.523139 1137.107563 113 97 145
-21.874627 -16.002400 1142.062092 106 89 133
-97.659189 -268.756843 1147.496891 34 32 62
-347.537708 267.360544 1032.321072 57 44 70
-14.645393 18.424699 1127.234936 110 91 146
-77.151883 131.888723 1098.987484 52 46 57
-5.174610 -23.741260 1126.764679 65 45 80
-328.305507 202.924848 1034.353542 53 39 73
-30.851448 -150.659788 1131.470203 44 30 54
-72.094816 134.387445 1088.677025 59 47 65
3.943559 72.293943 1108.006287 34 27 60
-326.835084 257.245159 1020.803165 98 77 110
-67.958093 134.649324 1083.072090 74 62 84
-320.130086 216.928816 1024.688625 107 93 134
-21.180233 -143.178737 1118.893909 134 107 127
-319.016719 215.779805 1023.035622 49 36 82
18.080039 44.333020 1100.676632 105 86 135
12.685655 7.823969 1097.149372 71 64 109
12.685655 7.823969 1097.149372 71 64 109
-4.867515 -125.399482 1106.319332 110 85 99
66.357446 -256.252050 1130.693913 82 61 86
-56.222296 160.408413 1064.735031 122 101 150
-343.399787 285.933948 1000.501823 100 78 72
-76.174974 176.423275 1049.406815 63 42 40
79.343265 -143.511808 1103.824806 142 123 138
78.770798 -130.231905 1101.468468 103 80 95
-33.980334 139.025724 1051.801109 113 94 143
83.632219 -252.764964 1110.235214 91 72 97
-288.599634 200.128460 993.661308 56 40 88
-288.346291 234.133339 989.733887 79 59 104
17.014182 96.359241 1045.150948 33 28 83
26.379398 82.750815 1046.579361 117 102 146
16.363318 93.571889 1042.563438 135 118 162
286.499524 169.976807 1069.736576 67 49 90
8.143139 105.320382 1039.295387 138 118 171
289.420962 165.715921 1066.910744 70 56 92
289.420962 165.715921 1066.910744 70 56 92
106.737101 -77.475768 1067.719650 150 130 149
19.409265 -35.238606 1038.903427 127 107 154
120.907247 -194.225478 1067.226219 77 59 72
-1.614081 144.791758 1017.066574 86 63 107
122.093821 -79.513723 1053.853512 58 44 62
120.664513 -273.656726 1072.037697 152 126 140
122.337568 -196.741414 1063.429642 93 76 87
122.337568 -196.741414 1063.429642 93 76 87
129.241216 -197.728860 1059.991837 69 52 65
130.333638 -121.170998 1049.268055 62 46 57
133.756852 -199.513674 1053.789425 87 67 86
134.183240 -82.407576 1040.434361 74 60 88
137.550759 -255.210853 1056.803799 91 65 83
140.443301 -227.510071 1050.822258 87 75 95
141.360009 -318.866515 1059.317684 107 79 98
140.223110 -264.172792 1053.134537 68 53 67
142.861927 -161.252975 1040.915298 85 67 84
141.237617 -198.491991 1043.954277 144 123 138
143.835020 -154.982567 1038.089275 91 62 78
147.361767 -354.585862 1057.224846 156 124 135
148.345423 -321.229434 1052.866364 81 56 70
146.267343 -201.567078 1039.802074 85 66 91
154.062700 -92.844456 1021.666336 136 116 135
-251.830578 195.853412 956.401634 64 47 81
158.287096 -120.130301 1020.242214 61 48 70
160.166836 -278.793979 1033.798027 141 119 138
-247.421741 216.099310 949.893475 58 43 87
161.473489 -242.319131 1029.750633 76 63 79
163.547838 -297.198987 1032.207680 100 80 99
166.114235 -361.681843 1038.660336 143 118 128
165.980911 -242.137003 1025.099659 79 58 80
165.241730 -6.998841 999.426746 86 67 88
164.456332 -285.702586 1028.150368 138 119 138
166.097844 62.948221 989.737511 148 132 150
166.671205 59.511787 989.150524 83 70 96
168.837667 29.641017 990.101910 124 108 125
170.972431 -268.419647 1020.955181 138 121 142
172.099102 -360.189986 1029.405975 87 61 79
168.931270 76.143646 983.458710 70 52 75
174.101710 -227.455068 1013.947010 68 46 64
175.048983 -267.173314 1017.452621 80 58 82
175.048983 -267.173314 1017.452621 80 58 82
175.785971 -284.440231 1018.334293 66 43 57
174.658060 -131.438220 1002.119064 82 61 76
174.506962 -245.444751 1013.753033 136 114 132
175.923133 -212.811255 1009.822083 92 67 81
174.001110 -237.405467 1011.839390 148 122 135
181.551361 -284.926009 1011.206055 79 52 72
181.551361 -284.926009 1011.206055 79 52 72
186.443627 -4.829758 978.441334 130 112 129
188.529015 -264.706659 1005.220604 146 121 135
190.027678 -357.694507 1012.059498 86 54 73
190.694439 -282.432008 1003.362370 139 115 133
191.253006 -254.196525 999.683762 88 64 76
190.156853 -61.447793 978.686142 79 57 81
188.311660 36.630225 967.340565 144 125 142
195.013499 -363.130879 1006.340122 86 61 75
200.559115 -199.029970 984.144688 141 125 149
196.013141 40.398768 957.658958 153 134 151
198.830807 55.424970 953.515434 91 69 93
202.635694 -287.582588 989.140034 84 58 71
206.848836 -190.281034 975.371838 79 62 89
206.848836 -190.281034 975.371838 79 62 89
207.673645 -182.668817 974.567509 82 65 92
208.550620 -165.380764 972.502232 143 124 139
208.422971 88.488525 945.424843 70 46 70
208.937597 -200.582218 973.958778 142 117 131
211.307287 -285.110807 981.545067 152 124 137
212.952495 84.423941 939.956188 126 111 132
213.358188 84.296513 939.902210 126 111 132
210.800123 160.623538 930.374050 94 77 104
214.936590 -366.960716 984.492302 141 122 143
214.817238 -170.410168 963.299942 90 67 99
214.379883 33.445174 940.656090 92 73 100
219.513512 125.433314 928.052902 80 56 88
230.964994 31.832409 931.260872 152 130 149
227.078319 -125.254428 946.753407 73 51 70
224.806380 103.283489 922.694969 85 70 98
224.808455 151.639760 916.920662 68 55 77
226.724362 -14.875193 933.396721 80 61 76
227.062845 -19.665384 933.860970 134 112 130
223.781276 79.425347 922.339439 153 137 160
229.287219 54.950058 924.486732 150 130 153
230.986023 40.765223 923.925972 77 55 83
231.031203 34.817019 924.529934 71 49 73
235.902166 -247.383261 953.032112 74 51 66
235.902166 -247.383261 953.032112 74 51 66
232.355642 48.550600 922.269630 64 52 72
231.000042 54.811513 920.821190 137 123 147
236.990571 -290.758491 955.228233 88 65 80
232.609034 -206.694603 946.366119 96 74 86
232.609034 -206.694603 946.366119 96 74 86
239.464021 -365.999222 961.915207 133 109 127
236.165643 122.922289 910.417271 93 69 93
245.541930 -2.257763 918.329144 111 89 108
250.859833 120.599163 890.814590 61 50 70
255.250168 15.473838 899.889374 142 124 141
259.748960 -210.633111 922.196960 98 69 94
259.748960 -210.633111 922.196960 98 69 94
264.815879 2.187502 894.766521 117 96 118
268.269920 18.113680 889.212036 122 97 117
270.408320 -16.867410 892.109013 117 95 119
128.070855 -156.661892 917.225838 237 192 178
270.752740 27.833813 881.376648 239 199 181
270.775723 0.770619 884.031677 240 197 180
277.152443 -100.465894 890.588856 203 165 153
-339.440179 -23.383231 890.793037 160 113 109
135.736048 -91.663539 883.275223 152 116 108
-227.681375 -73.150390 890.929699 239 195 172
-226.563287 -73.123932 890.612984 239 195 172
148.876047 68.853337 874.016285 244 201 184
-265.219808 -32.527775 886.377811 207 172 159
-220.566106 -91.676903 888.080978 178 131 123
269.898319 87.079269 832.111263 148 108 103
167.452657 -22.003040 868.603706 244 201 184
540.332651 -235.298681 825.165653 130 136 155
540.332651 -235.298681 825.165653 130 136 155
436.868477 -135.217988 818.863964 152 116 108
44.838926 -144.388998 810.273933 178 131 123
-203.962588 100.595820 806.360722 166 120 112
17.020625 -73.382521 798.593760 207 172 159
-437.338209 -19.003181 1621.823883 125 103 121
-437.464094 -1.532630 1618.577576 98 71 87
-438.293743 -109.727800 1630.348778 123 99 117
-436.394882 204.601645 1595.584393 88 65 79
-437.330675 -86.561590 1627.398491 123 100 105
-436.933613 -93.244624 1628.353500 120 97 111
-435.558319 164.612448 1599.039459 73 54 63
-435.885859 -100.455546 1627.980042 135 114 129
-432.729340 108.622634 1604.900360 76 62 64
-433.349705 105.942893 1604.402161 132 111 120
-434.365654 -8.342774 1616.751099 94 68 82
-434.169579 -98.752135 1626.279068 58 35 43
-434.169579 -98.752135 1626.279068 58 35 43
-433.706760 226.724505 1588.983822 70 53 66
