ply
        format ascii 1.0
        element vertex 67413
        property float x
        property float y
        property float z
        property uchar blue
        property uchar green
        property uchar red
        end_header
-142.209315 147.665250 400.282288 13 25 19
-49.762595 165.193522 434.960032 78 80 120
-14.444526 156.756115 447.773695 148 151 189
-14.444526 156.756115 447.773695 148 151 189
-139.916492 157.408464 401.727915 73 97 103
-49.769610 163.654923 435.130501 124 129 168
-39.389813 161.546516 438.935423 69 75 112
-133.314514 164.109886 404.637623 30 53 91
-11.077566 156.678057 449.360371 60 62 97
-132.321775 166.374183 405.913162 24 81 73
-49.596328 163.666189 436.191034 57 60 104
-39.885479 162.150943 439.715433 64 70 111
-25.813049 160.239506 444.829750 76 78 112
-25.813049 160.239506 444.829750 76 78 112
-125.071228 171.474540 409.093952 70 83 81
13.486654 -14.491484 452.504587 68 64 53
-108.319151 167.550623 415.692091 85 97 99
-12.214644 158.124292 450.606632 89 90 124
-130.907154 169.909894 408.160686 64 75 55
-133.704007 162.585175 406.873274 106 157 173
-50.018287 164.595032 437.582016 72 78 119
-139.347541 163.757336 405.251312 59 82 114
-144.609308 148.928344 403.224277 18 35 32
-144.609308 148.928344 403.224277 18 35 32
-62.759316 166.243696 433.987284 79 83 118
-66.249335 165.198815 432.695293 127 133 162
-49.861905 164.987040 438.800859 121 127 164
-132.104468 170.654035 409.241915 43 69 53
-13.904373 158.079445 451.809502 123 125 165
-141.848767 154.591680 405.353117 2 35 68
-146.895194 149.621689 403.654051 17 37 32
-133.239555 172.275543 409.880781 109 144 130
-140.445948 160.545564 407.013130 88 117 162
-115.624058 164.719784 416.246605 27 22 23
-145.568013 149.854660 404.727745 92 125 158
-5.960641 155.043983 455.389643 120 120 160
-130.737424 167.958558 411.023903 35 58 50
-41.988662 163.158059 443.115520 165 175 205
-114.156365 166.882622 417.343855 4 6 14
-19.073324 158.355033 451.325226 76 81 114
-27.795407 160.896921 448.321724 158 163 194
-145.590651 146.331668 405.339384 205 209 203
-69.464320 168.282640 434.107399 164 170 193
-69.464320 168.282640 434.107399 164 170 193
-43.322343 163.424337 443.314171 139 147 184
-10.831205 157.805848 454.766798 116 118 158
-62.399077 166.769648 436.920261 61 63 103
-9.589500 157.306564 455.993128 56 58 98
-70.941639 169.565403 434.681511 126 132 151
-149.429798 158.153307 406.852531 244 255 255
-33.849829 162.158823 448.519278 66 69 100
-33.849829 162.158823 448.519278 66 69 100
-33.994937 161.614728 448.578358 65 68 99
-33.994937 161.614728 448.578358 65 68 99
-56.721431 164.397383 440.734529 125 128 172
-35.964113 162.327003 448.167515 150 155 186
-12.930907 158.779848 456.729650 113 118 149
-14.531668 158.139515 456.133842 50 52 92
-119.290078 163.521183 419.164515 84 91 86
-39.878088 163.398373 447.656870 63 66 104
-94.011676 171.173668 428.978300 77 85 132
-104.868698 171.797776 425.598764 94 103 117
-152.092898 155.574727 408.299303 68 99 102
-151.317263 159.503412 408.809710 41 74 67
-64.668125 167.604733 440.209246 86 92 129
-87.179965 169.930232 432.388639 129 141 169
-11.826672 158.441639 458.662462 120 122 162
-137.121034 164.596725 414.809036 20 69 61
-149.733782 158.361292 410.015392 20 57 49
-28.271383 161.474490 453.326941 167 171 199
-152.666211 159.060764 409.723854 79 116 114
-109.244752 167.823267 425.682592 175 186 194
-9.313652 158.564043 460.437441 53 55 89
-148.174381 161.125875 411.607075 20 38 31
-24.915133 161.065495 455.499268 163 170 197
-24.915133 161.065495 455.499268 163 170 197
-51.606351 165.979469 446.434069 110 117 156
-106.576204 173.902714 427.575970 22 32 49
-149.120677 151.636803 411.478949 52 86 75
-148.969948 148.079443 411.725569 225 227 228
-148.969948 148.079443 411.725569 225 227 228
-27.718019 161.768997 455.293131 65 70 101
-11.432105 159.064925 461.321354 51 52 90
-11.432105 159.064925 461.321354 51 52 90
-39.184424 163.362014 451.899672 120 124 159
-10.108598 158.016264 462.311840 121 125 160
-52.022564 165.964282 448.230028 122 124 165
-24.964526 161.313426 457.466078 79 82 120
-143.158257 163.080537 416.303921 42 124 111
-112.549424 168.123233 427.566814 115 115 131
-150.598919 159.754729 414.031649 43 60 51
-15.549202 159.645295 461.265326 155 157 187
1.113407 44.469562 459.690142 144 155 199
-154.818130 157.945085 412.857628 66 101 75
-14.879857 160.293305 462.033129 119 122 153
-40.266877 163.972688 453.548193 111 115 150
-152.443075 148.880863 413.516760 6 8 8
-19.143748 161.352956 461.057520 145 149 178
-61.059147 167.752564 447.035170 69 74 113
-114.258325 168.812239 429.810095 11 0 9
-67.182899 169.050086 446.518803 74 80 115
-138.765776 166.426909 421.991253 9 19 13
-115.700567 167.918134 430.705643 54 52 52
-142.351639 165.584695 421.429205 50 84 74
-57.826144 168.056345 450.941849 130 134 175
-90.621424 173.013353 440.324545 211 223 227
-156.829560 154.587984 416.152000 253 254 245
-115.645099 168.917894 431.800318 12 14 14
-115.485072 168.926919 431.898928 12 14 14
-37.995234 165.919495 458.471823 123 128 159
-116.771734 167.980635 431.702042 13 20 17
-42.267039 165.715027 457.470369 64 66 100
-63.269728 169.022799 450.569534 88 90 130
-117.905819 168.055809 431.860399 170 177 172
-15.476191 160.876751 466.757965 58 60 91
-116.144133 169.318700 433.209801 151 165 164
-51.064664 167.109501 455.727005 78 80 114
-75.189924 170.789361 447.984791 64 71 86
-57.828170 170.260298 453.887081 127 129 169
-116.555953 171.042264 433.955336 179 197 198
-149.135756 166.176295 422.423267 25 32 27
-48.523664 166.664910 456.882334 75 75 115
-15.228902 159.398091 467.709064 112 114 148
-150.736535 165.822017 421.963644 69 77 70
-151.152062 165.259993 421.814728 32 42 30
-16.187912 160.945261 467.651606 112 114 148
-111.797976 176.091921 436.255646 22 29 48
-151.487935 164.479327 422.027540 165 176 166
-151.487935 164.479327 422.027540 165 176 166
-154.286540 147.138810 419.730520 8 9 7
-54.141128 167.995870 455.605412 61 62 106
-54.141128 167.995870 455.605412 61 62 106
-15.262836 160.928488 468.280983 51 55 90
-40.509126 166.010380 460.149908 124 129 162
-40.509126 166.010380 460.149908 124 129 162
-54.940879 167.596626 455.531836 62 66 107
-124.400735 173.458207 432.421112 4 4 4
-18.581595 162.105834 467.549944 123 126 157
-145.325637 169.874907 425.030327 32 43 35
-149.752808 164.987576 423.206997 42 51 48
-149.752808 164.987576 423.206997 42 51 48
-137.184787 166.942763 427.875566 144 170 170
-58.635741 169.118786 454.841518 55 57 97
-31.357729 164.223969 463.706446 153 156 187
-25.920522 163.563764 465.534210 69 71 106
-57.279617 168.855464 455.535698 127 129 170
-27.347457 164.066708 465.309048 60 61 99
-54.974633 168.227863 456.368923 118 120 161
-75.385636 171.003807 449.799347 154 159 180
-151.919937 165.103853 423.320389 51 60 70
-38.062406 164.749408 462.014103 117 122 153
-150.601625 166.966510 424.198246 123 137 133
-153.535604 164.139128 423.102379 189 188 178
-153.535604 164.139128 423.102379 189 188 178
-111.452019 174.108732 438.282394 17 24 43
-149.641025 168.007672 424.876451 5 13 13
-36.317444 165.365851 463.150358 146 150 179
-120.107770 171.104968 435.517168 66 78 88
-37.937626 165.829408 462.907648 65 69 98
-137.489116 167.898428 429.691410 108 145 135
-68.034029 169.367480 453.449440 128 130 170
-154.058433 165.471268 423.997211 142 141 145
-67.119735 170.067155 453.827953 55 57 98
-67.119735 170.067155 453.827953 55 57 98
-138.906705 168.499482 429.505348 79 110 109
-138.906705 168.499482 429.505348 79 110 109
-154.254532 163.671839 423.967981 70 57 49
-47.158444 167.197227 460.522652 61 64 108
-154.326594 160.973918 423.872137 196 199 173
-150.678909 161.476409 425.192356 141 141 147
-151.657641 166.229653 425.298882 101 113 117
-70.540744 171.132135 453.290415 58 63 96
-70.540744 171.132135 453.290415 58 63 96
-70.663404 171.270025 453.272629 58 63 96
-70.663404 171.270025 453.272629 58 63 96
-38.121656 164.549327 463.829374 123 126 157
-67.684066 170.914829 454.603863 127 129 169
-49.380866 167.158198 460.448313 66 69 113
-150.107121 175.186980 427.221012 200 196 195
-112.533665 174.468708 439.842510 23 29 48
-53.261733 168.733680 459.720230 137 143 180
-15.971088 161.516142 471.660662 81 79 115
-155.452764 164.186871 424.973536 194 192 191
-114.261651 174.916506 439.834881 77 81 92
-142.677820 171.323681 430.049944 157 179 185
-114.160347 173.623407 440.273571 16 22 35
-54.323661 168.228710 459.923077 81 83 124
-155.622327 165.824127 425.751114 95 98 103
-151.007450 167.852354 427.642012 31 38 33
-146.380639 172.365987 429.746389 99 102 107
-154.071236 165.320337 426.661873 63 74 82
-148.700213 172.928059 429.228115 25 27 28
-57.888705 170.089662 459.662342 74 76 117
-145.169318 172.293317 430.727673 40 52 58
-154.564464 164.987803 427.019882 74 78 79
-161.286259 159.858680 424.546957 255 255 254
-161.286259 159.858680 424.546957 255 255 254
-20.352991 162.545967 471.957397 58 61 92
-147.415853 170.274711 430.470419 188 202 198
-45.254087 165.630221 464.312744 125 126 170
-45.254087 165.630221 464.312744 125 126 170
-30.294201 165.301931 469.387674 120 119 159
-30.294201 165.301931 469.387674 120 119 159
-147.050750 171.474540 431.133509 166 183 180
-140.311599 169.402027 433.224487 36 68 57
-157.015193 163.539743 427.114153 252 255 251
-157.015193 163.539743 427.114153 252 255 251
-157.212663 163.633406 427.066946 252 255 251
-157.212663 163.633406 427.066946 252 255 251
-143.915796 171.974921 432.311821 135 160 164
-152.360737 164.201272 428.934145 81 89 88
-33.096969 166.144061 468.913841 141 144 175
-69.336140 170.599890 457.466030 76 78 119
-31.586719 165.804577 469.709015 120 120 156
-25.099975 164.651024 471.959352 83 85 116
-27.205509 164.791071 471.310425 85 85 121
-47.792420 167.448127 464.890909 68 70 111
-46.949881 167.430949 465.276575 126 128 169
-143.627179 170.803368 433.532858 45 70 74
-46.315625 170.166385 466.031075 122 124 159
-147.659063 168.636596 432.284737 190 209 194
-32.099006 165.704238 470.418406 52 53 87
-40.304103 167.543221 467.897797 68 72 101
-149.670827 168.391204 431.758976 83 99 88
-43.003210 168.178344 467.466164 128 130 164
-31.596756 165.531075 471.200371 112 116 145
-116.851664 174.632323 443.910074 67 70 75
-53.428000 169.776869 464.664030 75 77 118
25.945204 122.611260 266.124034 178 179 177
21.602139 119.362569 265.086102 195 189 182
-10.771040 98.870152 255.646205 160 157 152
23.851855 122.340798 266.839862 177 181 175
8.192348 110.453439 262.680316 189 191 185
-18.810920 88.283974 256.606054 154 140 121
-21.711624 92.105269 253.172302 141 127 108
-17.257147 94.670057 254.859638 197 182 163
16.514501 113.753605 267.135048 117 113 108
22.430588 119.511390 268.407679 191 187 182
-40.046090 120.878923 237.105680 142 127 108
-6.167485 101.887608 259.605551 165 166 162
28.910220 123.377407 270.957279 89 93 88
-5.902873 101.536536 259.881163 165 166 162
-26.804256 95.572346 250.576234 198 182 166
-14.501953 90.159923 261.321783 142 127 108
29.502332 124.012983 271.467233 178 182 177
29.502332 124.012983 271.467233 178 182 177
-16.982368 96.669292 256.227708 98 87 67
30.295449 124.255371 272.106838 120 125 123
22.360176 121.783590 270.515943 80 83 81
5.716763 109.970498 265.860558 130 129 125
-7.937918 101.502454 261.613059 93 97 92
63.776487 124.875104 293.469071 45 50 81
-9.878749 102.296662 262.116575 178 179 175
5.369081 57.018149 287.660480 190 180 163
5.369081 57.018149 287.660480 190 180 163
-26.945186 101.365209 253.252649 169 155 137
-18.115488 95.595586 259.903765 142 127 108
-1.763522 67.114884 281.244993 165 155 138
1.101760 106.717944 268.826818 165 172 159
-23.396386 103.108728 257.019591 128 107 85
19.379878 122.209239 273.773384 94 98 93
-24.637151 103.524935 256.673527 195 175 150
-10.873929 103.533304 264.509392 119 126 123
-29.907945 107.944715 252.142477 147 129 100
-27.257967 101.728642 256.376195 184 166 149
-24.200192 103.444147 257.540679 121 101 76
-30.224076 107.381165 252.538848 203 184 157
44.018251 126.289546 287.357950 57 64 97
41.825643 124.412405 287.060332 52 57 90
24.277329 124.289918 277.576494 162 167 165
-4.874242 107.612884 267.902565 38 32 27
-7.751617 105.956268 267.756248 189 190 186
14.140637 117.758107 275.788260 132 134 122
-34.028962 94.372094 258.114600 161 146 137
-9.814242 116.602027 263.581848 171 153 136
24.068382 123.780131 279.567981 159 164 162
12.006179 119.654524 274.772596 168 168 156
13.184087 120.122325 275.500917 191 193 181
-5.864479 107.348537 269.843626 150 137 121
34.719950 125.771773 285.541677 90 96 133
-40.820593 102.427602 250.364113 167 151 145
16.752145 121.899951 277.470493 111 113 107
-26.703513 100.614214 261.556196 196 179 152
51.128262 125.909376 294.859409 50 56 91
-27.009228 102.209640 260.911369 190 174 145
-13.343832 104.547000 268.363523 170 177 174
60.924190 123.885524 302.312756 48 53 84
63.328028 123.287821 304.074192 52 57 90
61.671531 125.545752 302.477241 52 57 90
-32.613865 95.665997 262.105083 173 159 141
59.154636 125.843418 301.252818 96 101 132
-31.831130 94.155121 264.087796 197 183 165
-18.780948 100.322771 269.278550 23 29 28
20.324211 126.168001 281.350517 114 118 113
-39.296329 92.417550 261.233234 172 161 163
146.161222 -127.340245 428.616381 94 72 60
35.979009 126.841176 289.995360 48 56 86
56.728929 126.023519 302.328563 48 53 84
59.789371 123.428679 305.300117 42 47 78
-14.063267 86.473364 279.524803 184 177 162
35.066652 125.978088 291.940665 49 58 92
75.664926 -29.369304 354.872727 142 127 108
174.725235 -159.083927 447.218466 142 127 108
95.996982 -56.288284 374.141288 142 127 108
53.096110 125.144529 303.095198 53 58 89
1.787716 116.858757 278.802538 35 29 24
-13.583186 105.549264 274.462485 34 44 44
58.778661 123.750460 306.892204 56 61 94
60.155118 123.885858 307.588053 102 110 140
-33.911297 97.369105 266.631818 149 133 117
-19.902450 93.334204 275.996351 189 182 163
-11.045098 109.336889 275.352383 156 140 117
3.734052 120.178485 280.343533 103 103 91
204.832411 -197.883081 475.084782 201 187 168
204.832411 -197.883081 475.084782 201 187 168
-24.951360 99.599934 272.108865 189 182 163
57.537824 125.014508 307.205105 53 60 93
61.750537 123.320949 310.979819 57 65 95
-13.108884 109.911764 276.320887 36 27 17
4.474397 120.886159 282.171750 34 25 21
33.000341 125.658929 295.713520 40 49 82
48.700652 125.774550 305.340338 91 95 123
182.520640 -166.366708 460.745430 229 237 237
56.262738 124.507821 309.869051 103 110 143
30.961952 126.340783 296.597338 38 48 78
48.005894 125.642407 306.248307 41 47 70
48.005894 125.642407 306.248307 41 47 70
48.998359 124.872005 307.168818 36 41 66
-3.328054 118.146563 282.474375 207 194 162
-4.771024 117.217851 282.577729 112 141 132
56.922448 123.980880 313.166571 69 76 109
53.681922 125.719607 311.286831 96 102 137
134.574330 -96.658921 417.713070 4 11 4
52.736646 125.559127 311.109090 45 53 83
-30.859187 96.823716 277.101326 55 43 49
53.390801 125.878930 311.877751 43 50 83
42.719382 126.416898 306.788802 94 99 130
55.519664 124.679542 314.077377 48 55 88
55.519664 124.679542 314.077377 48 55 88
52.475852 123.950911 312.961626 98 105 138
56.940347 124.371850 315.622425 59 64 95
56.940347 124.371850 315.622425 59 64 95
-29.140237 98.808378 279.561257 148 147 133
-19.370447 108.350658 281.717038 132 138 133
-10.877898 112.411165 286.036325 61 64 62
-8.323946 116.004372 286.301899 97 95 95
-22.062278 103.890121 283.875036 178 182 177
-4.751171 118.022895 288.641500 100 98 98
5.977777 124.102294 292.123580 10 9 11
-4.650253 119.119143 288.790154 45 43 43
-4.650253 119.119143 288.790154 45 43 43
49.167907 125.779819 314.296818 97 102 133
54.867291 124.048078 318.190432 49 54 85
-5.038179 118.935978 289.591789 64 62 62
56.267780 19.864382 345.552874 121 128 121
2.653056 124.320638 293.393087 89 93 94
13.913634 127.379203 298.645687 55 66 64
18.267013 128.491569 301.694369 89 98 135
4.683328 125.869632 296.552563 186 196 196
35.203648 126.291740 312.007570 36 44 73
0.271389 124.347913 295.556664 105 112 109
-39.186630 93.298495 285.482788 57 48 28
-1.272518 124.079263 295.885205 198 202 197
56.375670 123.893678 325.553441 110 115 146
48.654535 123.960769 321.755242 53 58 91
48.654535 123.960769 321.755242 53 58 91
49.830946 124.694359 322.693110 112 118 147
-35.906687 100.577998 287.269449 228 225 210
2.376453 126.674795 299.397635 91 102 100
55.538344 77.402395 339.836621 209 215 210
44.381928 86.988086 332.038903 170 177 186
-8.036902 119.035006 297.370625 193 191 181
53.385013 82.843655 338.300514 81 90 93
45.692736 85.182476 334.570360 188 190 184
-26.148769 108.204424 292.985463 179 186 183
42.048731 86.947298 332.850862 121 121 115
56.025702 72.385645 343.617940 89 83 78
37.006745 79.355741 332.602072 191 189 124
37.006745 79.355741 332.602072 191 189 124
-18.915272 114.581215 296.509719 114 120 115
53.211588 82.891542 340.639210 61 64 69
-4.442288 124.467325 301.636767 103 108 106
39.727613 86.358547 334.128356 119 158 180
46.261922 82.470733 339.436340 116 111 113
35.345766 83.695471 333.950758 249 247 239
-25.302568 111.505210 297.475624 178 182 176
-19.943772 116.609633 298.769331 194 197 188
36.338556 83.699554 334.754372 172 175 179
47.679695 123.756647 330.945683 35 43 73
54.971981 73.880351 347.288513 111 89 78
51.056057 75.469613 345.218515 78 94 93
-33.391437 107.988083 296.316361 168 176 175
-5.104666 126.996112 305.089498 180 184 179
-19.117041 118.312395 300.841761 27 26 16
-13.534792 121.624303 303.165531 189 188 178
-16.436040 120.668173 302.330971 195 194 184
-3.428743 129.191196 306.455207 116 119 117
18.629315 67.885387 329.914808 27 26 16
-15.283808 121.001625 303.121471 202 202 190
56.104517 71.280336 349.971390 254 250 255
56.104517 71.280336 349.971390 254 250 255
-22.171067 117.968678 300.873780 40 38 37
57.224512 71.484727 350.629282 102 88 94
36.580247 81.455153 338.596869 253 255 247
61.092019 69.858950 353.327584 94 105 109
-5.803477 129.419935 306.556535 124 128 122
-13.268740 124.015260 304.582596 22 26 15
48.107833 71.791124 347.060966 255 255 252
-10.578427 126.386726 306.065392 207 209 203
24.208239 72.435629 333.390903 196 200 189
0.654201 129.288983 311.177206 24 36 36
0.204451 128.513753 311.281252 187 201 199
1.107871 131.026042 311.563230 34 49 51
48.835266 78.080297 347.708607 35 93 198
0.336285 131.093109 311.511540 98 111 113
-33.470169 110.247481 301.350713 59 66 61
-1.613974 131.359851 311.430669 88 100 100
-6.889567 128.654528 309.697890 120 117 113
38.620189 72.401339 345.161152 85 89 90
64.352477 62.452382 359.815598 203 211 210
65.182561 73.924202 357.637525 144 153 157
192.009294 -182.661843 467.884922 39 45 52
56.504554 69.188219 354.804325 190 195 194
56.909943 67.363936 355.628395 192 195 200
54.242706 71.173334 353.576660 40 25 33
42.579648 67.816925 349.022031 72 79 74
-21.145441 122.417521 306.021357 64 65 63
-51.244777 100.351250 297.334719 60 44 32
44.826341 66.614401 351.638007 142 149 146
37.598339 68.682688 347.870851 57 69 73
42.096627 56.404191 352.538919 72 85 83
38.145396 66.004729 349.095273 195 221 221
52.436429 -22.547737 375.344896 204 184 167
69.551718 56.411636 366.163564 177 185 184
46.314970 62.605166 354.514647 67 69 70
-99.022257 141.782928 271.125460 170 152 141
67.974979 55.164802 366.254854 181 190 187
-25.896636 121.066248 307.583022 127 160 156
69.567448 41.188398 370.282245 255 251 255
44.967428 60.837203 355.346799 240 228 234
44.967428 60.837203 355.346799 240 228 234
-25.519705 122.152030 308.662057 185 186 170
46.536896 62.785393 356.079292 103 104 100
-25.581270 119.399107 309.738183 125 142 139
76.705420 50.113875 372.821379 81 90 94
-45.953155 103.200817 304.793191 73 67 56
-36.732638 112.429202 307.226491 189 200 198
46.622279 60.997945 357.437015 59 50 47
-27.143505 123.248947 309.414458 4 11 4
78.714216 45.376146 376.039028 168 173 174
70.724779 42.621729 373.143220 37 23 25
78.741431 47.203156 375.856829 74 81 84
56.547844 53.872287 364.452410 150 186 186
44.142693 59.015381 357.918859 42 49 46
-37.583652 114.418733 308.285904 190 197 192
40.206236 57.056773 356.956553 241 238 233
40.206236 57.056773 356.956553 241 238 233
72.779852 45.957094 373.971176 112 146 139
45.148960 59.254783 359.269691 77 45 50
45.148960 59.254783 359.269691 77 45 50
-42.054629 110.112107 309.082389 127 134 129
42.802060 59.813064 358.882618 93 96 94
72.114432 45.636141 374.926090 119 133 139
57.014519 52.258015 367.178440 19 24 22
57.014519 52.258015 367.178440 19 24 22
-37.873876 117.897141 310.037065 176 183 180
47.133383 58.553678 362.062335 66 56 46
47.133383 58.553678 362.062335 66 56 46
46.632388 58.578938 362.006545 96 94 86
52.440017 55.921328 365.173674 77 83 78
-33.799514 119.020009 312.705374 50 55 53
-25.257757 124.829555 315.279293 106 102 97
73.347849 46.685144 376.569700 73 60 76
-35.364375 123.136795 311.607933 118 121 119
-34.154779 118.194139 313.123322 198 203 201
44.132203 56.701386 361.746860 48 52 47
-35.082966 117.149818 313.231921 191 198 195
72.592628 48.846835 376.168847 187 170 181
-33.931139 119.933867 313.461256 189 195 190
83.688176 38.663119 383.248711 172 182 189
-21.944204 131.340206 316.557908 103 101 100
-21.823493 129.506302 316.953373 51 50 46
45.715523 57.484412 362.986159 118 122 111
80.498409 41.350126 381.618309 209 218 222
42.465615 56.740755 361.736941 51 54 52
-33.030835 122.224772 313.956261 194 195 191
41.527507 56.368858 361.640787 138 139 137
-31.489220 122.655654 314.800096 195 195 189
-28.105643 123.946857 316.191387 73 72 62
75.266790 30.805528 381.784248 155 136 131
-101.412737 141.070080 282.241821 189 171 160
-20.780444 131.443214 318.095684 102 105 103
75.238925 29.900518 382.172751 249 236 228
75.238925 29.900518 382.172751 249 236 228
45.665425 56.653738 364.052486 55 58 49
55.798197 51.128626 369.844556 127 134 127
8.552686 75.975257 340.995526 73 72 62
-47.971126 107.739329 312.012410 190 186 175
-27.292711 127.876747 317.292619 210 208 198
-26.150921 126.030004 318.144250 211 209 199
57.648134 51.043528 371.114326 137 144 131
55.877960 51.732081 370.323229 170 177 164
35.841194 35.894197 360.100675 195 195 189
54.559988 50.235438 370.185614 53 54 44
71.524650 33.961084 380.707240 174 152 140
43.709806 53.995043 364.984965 63 65 66
46.197841 61.435831 364.656878 181 177 166
46.197841 61.435831 364.656878 181 177 166
46.095079 55.889761 365.921593 135 139 127
44.834238 55.382705 365.545917 144 148 142
-52.689314 103.997159 312.115097 240 225 206
47.603720 55.237657 366.914940 141 147 136
43.714270 56.225741 365.178061 64 68 63
-24.732989 128.712583 319.944024 198 199 189
45.124856 55.172229 366.144633 68 73 64
57.150251 50.608456 372.312355 120 128 118
-56.502628 101.059484 311.514497 97 78 63
74.790257 38.894036 382.281041 117 115 127
48.732936 54.545760 367.955518 169 169 153
84.045833 36.544681 386.827612 168 180 186
49.806923 55.357951 368.605876 125 125 109
46.598217 54.961866 367.366028 90 93 84
44.092712 55.402660 366.314149 118 122 116
-31.726664 126.314676 318.394995 150 151 141
43.658271 54.313225 366.384554 162 165 163
43.880826 54.675305 366.464162 66 70 65
-52.174008 105.315161 313.557696 94 80 62
74.491543 41.892195 382.330823 90 104 210
46.261561 57.489216 367.140746 169 169 157
-56.717324 101.640308 312.602258 191 171 154
-25.546223 129.974651 321.016502 205 207 195
-56.966877 101.088679 312.936568 108 88 71
56.643265 49.624962 373.897934 49 57 47
-51.151854 107.799315 314.821911 210 204 197
43.702769 53.556353 367.633057 81 84 82
55.985826 50.784773 373.825812 35 42 35
-54.368067 101.617050 315.349460 87 69 52
53.835028 49.155542 373.533487 190 194 189
56.340057 50.106293 374.631500 104 109 107
56.340057 50.106293 374.631500 104 109 107
46.757966 -15.615940 373.051620 93 70 54
42.185110 55.158079 368.079591 150 147 143
41.968006 54.676348 368.122435 113 110 106
44.799051 56.146306 369.102025 74 75 66
53.442389 50.580007 373.932767 152 154 154
-56.202596 106.912613 314.973092 92 76 59
55.613309 51.333433 375.496173 90 93 98
72.327125 45.037228 384.194732 188 163 255
42.394108 57.442355 369.407821 187 184 180
70.810825 41.840157 384.389019 19 15 20
50.087065 52.345151 373.685718 186 184 184
48.334625 53.665227 372.726703 176 173 168
-51.652962 108.621478 318.845177 186 184 176
71.650344 47.319692 384.099221 152 154 185
79.651344 39.607990 388.911700 94 101 104
47.202548 53.862995 373.038578 216 213 205
48.237324 54.016364 373.469353 30 29 31
42.112035 54.987687 370.710707 182 188 187
38.703722 54.842627 369.832659 167 168 166
38.703722 54.842627 369.832659 167 168 166
-43.846893 117.386580 322.579455 117 127 121
77.838165 39.821357 389.161110 188 197 201
49.378318 53.844106 374.899602 130 121 131
72.613382 45.127043 386.234307 76 90 118
-42.934933 132.618725 320.787144 182 186 175
-42.934933 132.618725 320.787144 182 186 175
66.937453 42.533922 384.505224 219 218 228
-47.517353 110.142004 322.832251 160 166 161
66.845536 42.300180 385.004115 2 0 19
68.808436 42.144376 385.932255 192 195 203
78.642064 43.394047 389.859056 76 79 77
40.474719 55.279505 371.930432 135 131 142
59.384280 43.583441 382.184196 21 15 20
67.706174 41.311044 386.389899 29 28 37
66.206032 42.750961 385.781407 28 19 46
49.607435 47.600153 378.471899 133 52 191
64.496076 43.278119 385.410619 129 79 151
58.684099 44.850561 383.175516 164 139 183
79.455477 50.565559 390.994525 85 86 84
69.929940 40.765044 388.759971 212 219 228
61.760908 43.555236 385.061789 87 72 129
-67.299712 104.028833 319.764853 41 40 60
64.552575 42.916989 386.462140 77 31 108
66.156965 -6.695754 388.683987 182 186 175
63.662016 43.240935 386.292148 158 107 187
-58.920813 109.346032 322.931695 168 163 142
77.865028 51.504552 391.841531 75 70 67
-43.163803 125.563753 328.428078 141 143 137
-43.163803 125.563753 328.428078 141 143 137
-43.163803 125.563753 328.428078 141 143 137
68.314427 44.340110 389.120436 110 131 132
69.044137 44.970667 390.440130 176 197 194
55.551410 48.846012 384.279776 250 255 245
-62.099266 114.810216 324.275041 195 193 185
62.927651 49.471161 388.016272 6 18 22
70.386267 47.291553 391.423750 49 54 55
71.410435 49.757129 391.968942 122 125 123
-48.067313 123.078179 330.754161 130 135 126
58.334935 49.075830 387.063193 220 231 229
-51.956201 120.672464 330.200672 168 177 174
57.697409 51.360071 387.508011 94 121 117
48.604181 52.069104 383.837390 49 9 175
-49.686980 123.123050 331.837749 178 185 178
71.665335 55.534160 392.964101 73 70 66
-53.109956 120.464468 331.699896 173 173 161
65.773702 51.016140 391.966081 67 72 73
-51.060832 126.558018 332.581401 25 32 25
53.302455 55.482328 387.015963 186 198 232
-62.427652 123.163474 329.810691 16 24 37
49.922407 58.204728 385.815477 129 51 189
47.871768 51.603246 385.973430 109 8 218
65.947658 49.913239 393.818879 54 59 62
63.285393 49.745077 392.989779 99 113 119
64.984483 52.382231 393.369937 60 79 86
-54.220814 131.489527 332.875586 162 166 160
65.544456 50.976998 394.138932 182 217 221
-58.266979 123.341429 332.886910 55 58 56
-70.343477 114.074457 330.221224 143 136 119
43.192437 48.632708 386.251736 87 1 203
-53.091568 132.034349 335.139418 53 63 51
-53.091568 132.034349 335.139418 53 63 51
64.054239 56.707740 393.839812 51 60 64
-67.829114 116.614091 331.654549 92 87 72
-69.352627 113.529110 331.452274 207 199 182
54.660285 55.377388 390.850449 242 242 242
-42.875519 138.284969 339.769530 50 53 51
-71.976072 113.388693 331.417656 185 176 162
47.179064 52.716684 388.630176 129 12 227
68.221706 -43.174440 408.856916 51 48 33
53.323460 50.905699 391.438389 112 85 151
-70.071989 113.627267 332.394195 200 190 173
54.759330 55.978763 391.391230 114 92 104
-65.766931 121.661198 333.604312 72 71 75
59.076345 55.197161 393.571091 62 64 65
-70.647705 115.335798 332.868195 142 132 115
-73.487657 110.398650 332.515717 140 132 119
-66.831315 116.859865 334.416962 135 130 121
59.656572 56.373584 394.108081 133 135 135
-72.335166 111.496830 333.156371 147 136 122
-55.767685 132.055926 337.402177 91 106 92
-66.114348 119.930947 334.832692 204 197 178
-68.963933 117.320240 334.512210 176 168 151
58.057135 57.374334 394.337296 125 127 128
56.136620 54.687458 393.945456 179 178 188
26.729414 44.006348 383.756804 247 162 255
37.276074 43.181151 388.371706 0 197 216
26.831639 43.277767 384.738851 62 20 85
41.226074 46.110085 390.414119 134 178 232
39.994937 44.661099 390.295029 100 204 233
39.994937 44.661099 390.295029 100 204 233
56.956631 60.521287 395.120001 76 81 80
38.379273 43.098181 390.117025 0 38 59
57.485735 61.875385 395.566964 137 142 141
35.208479 43.127659 389.323092 155 190 224
42.693633 46.902916 392.088127 11 22 54
30.135483 47.299367 387.216163 216 168 227
41.318953 46.983871 391.654611 85 212 227
35.447893 43.614304 390.145397 164 196 215
33.478639 44.719267 389.516234 202 229 250
51.850122 55.053633 396.336770 250 253 251
51.850122 55.053633 396.336770 250 253 251
35.439536 44.958442 391.570044 48 64 71
34.889919 48.173189 391.089940 47 75 86
34.889919 48.173189 391.089940 47 75 86
40.511128 46.221179 393.518496 0 132 153
-8.598265 43.444279 376.170993 205 211 206
-3.605041 38.741916 378.506207 205 211 206
-3.605041 38.741916 378.506207 205 211 206
-60.166144 128.909099 345.847130 159 156 151
-115.588415 167.104948 322.622728 162 161 151
-71.237057 120.029914 343.091631 32 35 26
-77.971369 114.266896 341.185713 129 127 109
-78.077447 114.099491 341.396379 67 65 47
-78.077447 114.099491 341.396379 67 65 47
-78.077447 114.099491 341.396379 67 65 47
-76.194715 117.096794 342.031217 198 193 178
-59.946382 125.606835 348.086953 158 158 146
-74.205494 119.665003 343.246603 161 155 144
-138.607442 192.880917 313.128138 21 23 11
44.175857 63.072193 396.138811 251 250 252
-16.743806 46.402490 374.980259 86 83 69
-12.026898 45.903111 372.552466 51 51 33
30.010197 46.710205 392.845178 209 233 251
45.885772 68.282622 396.928287 49 52 57
32.866403 70.843863 392.505193 110 45 154
30.448610 56.954592 393.121648 6 32 49
30.210954 70.894200 392.101288 45 0 135
44.840473 70.006156 397.788334 32 34 42
44.840473 70.006156 397.788334 32 34 42
45.667765 71.550673 398.026538 94 97 102
29.000869 48.408079 393.946791 231 205 251
45.286122 73.945248 398.415899 104 111 114
39.277774 73.733503 398.483801 104 108 109
-64.823556 99.476600 355.953550 68 67 57
39.289242 76.360351 398.918033 58 62 63
-97.100514 144.019854 341.890597 167 174 167
-97.100514 144.019854 341.890597 167 174 167
-30.399448 63.524932 371.079803 68 67 57
-66.916615 129.047155 354.224062 144 144 130
37.254885 76.970261 398.603344 41 45 46
13.718981 54.989433 391.888595 4 2 2
-124.393821 168.582726 331.389499 29 28 18
31.167036 71.739799 397.029018 57 23 63
-57.382035 89.068955 355.922914 58 60 40
12.488159 68.201810 390.732241 242 226 227
3.698211 60.247725 388.766336 152 147 148
-82.830018 119.594002 351.020265 69 69 57
-68.559235 129.884136 355.896139 143 141 130
34.982488 78.081775 399.522567 106 110 111
3.028090 60.495162 389.431119 255 247 248
10.397407 60.507888 392.007208 65 71 70
35.178900 78.756672 399.882174 50 54 55
36.099917 85.945874 400.116396 144 151 148
24.790312 74.921525 397.155619 229 246 255
25.173408 74.453878 397.347212 229 246 255
28.799993 72.499669 399.058938 238 241 255
32.334030 79.153055 399.927282 40 44 45
26.145583 73.514557 398.109531 207 227 245
28.252903 78.373408 399.530315 46 50 51
22.027957 77.493107 397.406530 128 218 229
20.301570 76.502424 397.269678 243 210 255
-73.529977 135.202348 357.558632 37 38 34
1.696948 75.363749 391.446018 231 229 221
181.507373 -166.206205 460.901546 189 196 193
24.070351 78.354865 399.445581 138 145 154
21.660997 78.377825 398.664975 22 161 177
-0.954704 91.972369 390.354824 198 192 193
1.119343 74.841785 392.062235 72 70 70
1.700053 75.064325 392.395329 235 232 227
27.563587 86.094815 402.065086 70 76 75
24.701954 87.901938 401.144791 141 147 146
23.831843 87.518382 401.366997 48 54 53
13.044514 84.665173 397.800684 255 252 255
12.376462 85.326546 398.364830 11 3 13
12.062428 85.770297 398.258829 11 3 13
16.604105 98.556781 399.804735 109 115 114
9.914198 88.435727 399.628806 210 215 213
-73.292422 141.866565 366.954398 0 4 0
21.182190 92.587113 404.370070 158 165 168
11.602503 87.279260 401.694012 150 155 156
12.402821 89.567995 402.075768 89 97 96
10.816643 88.509709 401.969481 90 98 98
10.128751 87.323058 401.871824 138 150 154
-28.586984 185.465276 387.951446 51 54 82
-72.702843 149.053442 373.759460 87 97 91
-68.608201 151.182568 377.124834 41 54 52
-4.609117 142.505884 400.614977 125 131 172
-73.720503 149.191654 376.575994 0 11 0
0.846930 141.989648 402.688646 31 37 80
6.311324 140.102279 405.290461 62 66 107
-35.958487 149.195993 390.739727 86 89 127
-21.693432 149.131703 396.209431 71 78 111
-4.016188 143.378270 402.832174 58 65 108
-4.016188 143.378270 402.832174 58 65 108
-74.051362 148.320472 378.680253 61 78 69
-2.638589 142.238402 403.512335 111 119 159
-13.098586 145.909774 399.893928 61 70 104
12.916011 95.819956 412.059975 53 59 94
-3.459967 144.986308 403.300381 70 75 114
-3.459967 144.986308 403.300381 70 75 114
-27.920046 148.767185 395.012116 68 74 109
-27.920046 148.767185 395.012116 68 74 109
-9.107832 144.508350 401.659632 112 117 162
8.217771 140.041256 408.306265 41 46 85
-9.779814 144.764853 402.227545 49 55 100
-85.932803 143.723452 376.208878 29 35 30
-73.186743 148.059666 380.582309 51 68 59
-100.226736 115.859175 372.294426 211 224 200
5.932930 140.105343 408.387423 115 119 160
5.932930 140.105343 408.387423 115 119 160
-75.730437 149.895585 381.778669 57 67 61
-1.572416 142.539775 407.142496 165 173 210
-32.301030 150.284588 396.764064 59 64 109
-77.465099 147.850025 381.912732 76 96 83
-7.413901 144.540346 405.768538 130 139 182
2.437008 142.361605 409.428930 77 83 126
-58.685434 151.100552 388.808990 125 129 158
-45.136458 151.616955 393.401289 76 80 108
9.854158 141.114283 412.395382 112 112 152
-74.722940 152.489769 383.763719 37 49 43
-42.278460 151.947641 394.979787 85 89 124
-95.410293 130.564880 377.616048 36 44 33
-34.863394 151.149619 397.861981 85 87 127
-11.787742 147.233546 405.681515 53 59 106
-78.886223 149.654949 383.047152 42 65 51
-82.703555 145.256197 382.193971 0 2 0
-8.178420 145.474541 408.564806 64 71 114
-8.178420 145.474541 408.564806 64 71 114
-20.094086 148.457313 405.296373 48 54 89
-79.051411 151.459301 385.791516 13 35 23
3.129229 142.307198 413.459396 54 59 98
3.129229 142.307198 413.459396 54 59 98
-44.916776 153.187847 397.924781 78 83 114
-21.016587 149.100637 406.060314 123 129 164
-40.296787 152.144396 399.675703 129 134 173
-84.594941 146.322024 384.915948 0 0 0
-102.061570 128.850996 379.593134 143 152 139
0.296144 144.559491 413.611507 41 47 88
-19.980010 148.613465 407.173061 82 91 124
-11.711761 146.298122 410.017204 108 115 158
-105.213833 121.150410 379.436421 39 56 29
-1.020644 143.751657 413.677549 110 115 160
-83.995968 148.160219 386.489320 31 79 53
-21.371162 148.696566 407.223940 123 126 164
-105.561125 121.932614 379.935217 97 110 84
-14.974800 148.586619 409.685755 47 53 90
-39.649969 154.176557 401.697397 135 136 174
-10.702854 147.770035 411.239100 119 125 170
-82.530200 150.438201 387.850666 7 41 24
-9.145015 146.557438 412.060308 65 71 112
-20.536888 149.160981 408.508110 36 42 77
9.591461 140.862000 418.511724 50 54 89
-15.491419 148.784792 410.439253 69 76 109
5.195613 142.201436 417.263508 33 40 67
-10.941488 147.947609 412.173939 64 70 113
-104.436862 124.458337 381.989217 31 48 27
-35.338157 152.324462 404.889965 70 75 114
-42.176312 153.057480 403.015566 69 72 116
-42.176312 153.057480 403.015566 69 72 116
13.679369 140.102327 421.338844 30 32 66
-101.446784 132.248521 384.340096 53 63 50
-106.914127 123.477232 382.563829 232 232 208
-104.797065 126.529074 383.348560 201 211 181
-105.390692 128.330898 383.249378 26 41 20
-37.003496 154.644942 405.854082 78 83 122
8.704782 141.626620 420.776558 39 43 78
-106.638229 126.987743 383.508015 250 255 225
4.744504 142.250860 419.685125 122 124 164
-26.927173 152.090669 410.055637 66 73 112
-3.003571 146.061790 417.991590 58 66 103
-26.824617 150.932777 410.582209 129 136 175
-4.140759 144.521379 418.080235 111 118 161
-107.515347 125.294006 385.072160 117 123 100
-12.983170 148.954451 416.115856 53 59 100
-12.983170 148.954451 416.115856 53 59 100
5.172653 144.186950 421.933365 108 110 150
-21.599340 150.189757 413.888168 81 89 118
-16.172482 149.313891 415.916443 64 71 104
-14.939523 150.650096 416.318750 49 55 96
13.251399 141.158283 425.263309 34 38 67
-43.915445 155.565012 407.381535 76 82 125
-16.141656 150.079596 416.249371 112 118 153
-0.026440 144.748259 421.474409 107 113 150
2.387813 144.681144 422.493458 116 122 159
-0.120507 143.775380 422.384548 48 53 92
-107.942975 125.569677 387.995696 169 174 145
-13.636836 148.516726 418.480349 116 123 162
-104.832506 139.209032 389.551878 43 53 41
7.762838 144.995451 425.348520 103 108 141
-9.922398 146.783066 419.911480 59 63 104
-30.794817 154.090953 413.566017 84 90 131
8.104523 143.150151 425.728083 44 47 85
-17.821720 151.189041 418.036985 49 56 89
-44.653711 156.549323 409.733629 69 75 118
-98.269701 147.026873 393.035245 43 50 43
-7.321315 148.463011 422.189045 115 118 162
-31.181490 154.780972 415.157509 72 78 119
-102.267087 145.459878 392.620921 40 52 40
-110.195255 129.861021 389.895558 243 249 218
-109.110153 132.166290 390.638471 40 46 21
-43.982151 156.862652 411.778069 72 78 121
-44.701126 156.797266 411.625719 120 126 169
-44.701126 156.797266 411.625719 120 126 169
-16.942315 151.981819 420.239449 67 72 111
-48.529351 157.796466 410.661316 81 86 125
-10.740174 149.807429 422.399139 113 119 162
-109.249771 129.980087 391.179228 233 238 211
-15.754478 150.862861 420.902586 112 117 156
-18.135683 151.853001 420.727444 50 57 90
-0.108643 146.605122 426.130295 50 55 86
-110.241759 133.210754 391.549802 67 86 53
-24.209973 152.876019 419.116831 64 71 104
12.869632 141.899788 430.264902 25 29 53
-101.100123 153.545380 395.055866 15 24 14
-42.361298 157.587314 413.845730 68 73 112
-50.533122 157.827961 411.764002 82 85 123
-47.777292 158.079994 412.811470 70 73 117
-33.067855 155.711365 417.404509 124 130 167
7.891355 143.345702 429.768801 49 53 82
-47.212511 157.963717 413.397789 113 119 162
-102.096999 154.212165 396.204686 6 13 10
-41.656768 157.841539 415.394783 132 137 176
-14.287443 150.763690 423.622322 79 87 124
5.123677 145.489943 429.768133 63 66 104
-46.615317 158.621180 414.333248 123 129 172
-22.447108 154.289091 422.043324 161 167 196
-7.085337 149.564993 426.887560 138 144 181
-42.596528 158.177114 416.433859 75 80 119
-17.370719 151.952887 424.413061 140 146 181
-42.834699 159.342015 416.934252 124 128 169
-42.834699 159.342015 416.934252 124 128 169
-113.162160 137.069011 394.648361 77 94 81
-24.359117 154.153979 422.549343 136 141 172
-112.498379 136.455059 395.510197 104 127 113
-116.042769 132.769072 394.576836 100 122 117
-112.729108 120.703244 395.601130 46 49 47
-111.724210 121.813107 395.943642 254 255 253
108.563852 -58.893812 452.321625 216 215 205
-115.324414 131.095588 395.056820 111 129 122
-45.470366 157.926619 417.442417 71 76 115
-28.725910 155.895150 423.175240 45 50 83
-19.933519 152.318442 426.138353 163 171 201
-15.023930 152.494204 427.731228 49 55 92
-3.808178 148.419785 431.116819 50 51 95
-45.126399 159.442377 419.254065 124 128 169
-105.229354 154.891932 400.630045 19 28 18
7.529724 145.187950 434.527588 42 46 75
-49.016237 159.628510 418.198252 74 79 118
-92.481309 159.701169 405.074644 186 184 174
-44.676882 159.557235 419.729567 76 78 119
-52.808160 158.478582 417.306614 85 90 123
-32.158831 156.271422 423.822451 158 165 198
-45.933798 159.541845 419.942713 56 58 99
-45.933798 159.541845 419.942713 56 58 99
-53.926647 160.148299 417.729998 132 139 172
-17.736159 154.145694 428.279638 64 70 105
-106.529307 152.491260 401.467562 88 102 90
-45.219880 159.221292 420.620108 127 129 170
6.886910 145.445466 435.780668 66 69 100
6.886910 145.445466 435.780668 66 69 100
-106.248927 152.907276 401.988411 217 229 217
-106.248927 152.907276 401.988411 217 229 217
-107.574117 152.405894 402.015781 244 255 249
-26.375321 154.708076 426.954651 75 80 111
-64.215398 160.768998 415.995502 139 134 125
1.153235 148.339117 434.938955 33 37 72
6.980792 145.723665 436.523056 118 121 152
-94.898689 162.772357 406.789446 235 233 225
-117.318857 123.940957 399.655485 38 41 25
-107.883012 154.670668 403.440046 253 255 254
-67.003936 163.884604 416.283083 216 215 205
-49.201369 160.320067 421.534538 131 133 173
-45.121205 161.068773 423.037577 131 136 175
-16.187654 154.055643 431.474495 97 99 139
-117.756712 141.142929 401.202106 133 135 106
-13.185179 153.167927 432.846260 123 129 166
-13.185179 153.167927 432.846260 123 129 166
-117.275262 126.703620 400.984716 81 98 111
-4.867911 150.766826 435.505724 61 63 103
-4.867911 150.766826 435.505724 61 63 103
-43.685594 160.524118 424.631023 116 121 160
-11.374228 152.701855 433.824492 70 76 113
-42.617697 160.021758 425.226307 61 66 105
-95.312768 158.766103 409.534359 198 208 202
-49.675724 161.757803 423.380756 72 74 114
-71.673208 165.262067 417.090034 105 103 95
-117.224896 124.400032 401.741648 58 56 45
-36.312246 158.902693 427.422905 68 74 115
5.775790 147.273028 439.082241 51 53 87
-45.290631 160.611820 425.241041 128 133 172
-118.261015 123.879635 402.054262 213 218 203
-57.313108 163.212109 422.182512 77 82 115
-114.005518 149.799573 404.567480 45 44 40
-47.912690 161.780834 425.231314 125 127 167
-71.973956 162.772107 418.454933 124 123 113
-112.597704 150.693738 405.794096 53 68 87
-11.622691 153.051305 435.868835 58 61 99
-114.096093 131.190681 404.872608 76 98 96
-113.600004 149.890971 405.741644 174 185 183
-113.139403 151.917827 406.254196 57 74 93
-3.899502 150.942838 438.767052 46 49 87
-114.540184 151.953006 406.486034 51 73 98
-113.782275 152.656078 406.956863 204 220 255
-57.117349 163.296854 424.876022 56 58 98
-57.117349 163.296854 424.876022 56 58 98
-37.382060 160.663462 430.938959 61 67 108
-77.703035 165.032411 419.556618 99 105 110
-4.499217 151.611209 440.238619 43 45 80
-117.371190 145.504558 407.201529 21 38 64
-61.147392 175.950766 426.616383 135 137 177
-46.349856 161.661077 429.310369 57 59 100
0.150504 150.187373 442.302799 48 50 90
-119.815040 123.754275 407.014084 9 26 13
-119.139969 145.474064 408.382082 161 185 207
-99.984068 156.796527 414.958382 175 179 174
-119.095075 123.347580 407.727003 141 155 144
-112.729383 157.309020 411.213827 2 53 26
-21.167766 157.984591 437.800598 63 67 102
-21.167766 157.984591 437.800598 63 67 102
-113.059425 156.381953 411.611795 69 130 94
-131.756830 278.853965 412.836266 128 133 172
-120.474851 124.489391 408.160496 8 22 11
-1.824232 150.582075 443.521643 114 116 156
-120.971298 143.567693 409.325695 246 254 253
4.432268 149.122560 445.519161 53 55 86
4.432268 149.122560 445.519161 53 55 86
-14.132261 155.327785 440.724754 134 137 168
-36.103454 161.942124 435.005760 134 140 177
-122.701991 128.165197 408.316755 9 26 29
-115.807736 160.032082 411.946249 60 113 86
-118.397045 157.351422 411.305809 138 173 153
0.784047 149.644327 444.933748 47 50 78
-119.994962 123.209584 409.239101 174 184 172
-99.632657 156.968331 417.258358 207 213 212
-102.948964 160.006487 416.450739 145 147 147
-100.060356 158.706021 417.314816 90 105 108
-56.380200 164.661503 430.192327 67 72 111
-113.083506 159.558642 413.796091 225 233 226
-68.157870 168.645597 427.414417 144 147 162
-122.472560 127.486026 409.447432 89 112 128
-48.039490 164.916623 432.945871 121 124 162
-41.413313 163.135719 434.960461 53 59 96
-49.680471 164.440787 432.826996 129 135 172
-27.105764 159.329021 438.812208 162 167 198
-25.931573 158.598411 439.227724 97 102 133
-114.475012 161.215758 414.801884 130 136 131
-52.975082 165.781975 432.734251 52 57 96
-107.398999 163.622010 417.337132 126 136 130
-105.998218 155.052018 417.360210 240 244 238
-22.035906 158.903694 441.400099 71 76 109
-119.502056 157.228053 413.814640 94 137 116
-31.998861 161.595869 439.123631 58 63 94
-56.372112 167.105246 432.865334 62 64 105
-113.352787 159.073067 416.481686 238 242 236
-128.884375 136.753631 411.138296 194 196 196
-103.009248 161.154151 420.284462 78 95 108
-118.741345 155.657840 415.296030 107 134 125
-10.084265 154.704928 445.763302 76 81 112
-127.814496 138.067710 411.713648 88 115 141
-117.537856 160.425854 416.454744 196 228 217
-112.123013 158.013976 418.174124 42 38 44
-125.220263 134.302557 412.777090 230 247 244
-50.603151 165.388453 436.022520 55 60 99
-26.124901 160.600817 442.692375 71 76 109
-113.430119 157.666540 418.194818 228 233 231
-39.702216 162.859356 439.296055 130 133 171
-39.702216 162.859356 439.296055 130 133 171
-120.997846 157.775342 416.484118 3 27 19
-127.430212 134.810364 413.207626 239 255 250
-26.979193 160.826457 443.190575 149 154 185
-126.573193 135.438406 413.749743 47 75 75
-65.040725 168.591475 433.528519 147 151 180
-128.965294 136.897504 413.615561 38 74 62
-127.742469 139.818001 414.639282 13 52 37
-5.744909 154.842770 449.494410 114 116 147
-11.277172 156.449914 448.271036 62 65 103
-15.506193 158.050132 447.459126 151 155 190
-32.553819 162.543654 443.288040 140 145 176
229.377842 -229.406190 484.811258 150 166 182
-126.004839 129.127157 415.535975 15 50 40
-37.510094 162.968600 442.706490 118 123 156
-38.516459 164.402747 442.621899 118 123 156
-6.013910 158.216882 450.871468 116 117 143
-41.140804 168.138576 442.391348 118 123 156
-43.532827 171.543503 442.183065 118 123 156
-128.198469 146.985662 416.990566 20 37 34
-100.517201 167.487752 426.281929 89 104 120
-40.741351 169.385731 443.072462 46 49 80
-40.741351 169.385731 443.072462 46 49 80
-124.801135 125.520492 416.832542 251 250 252
-126.951814 128.567398 416.615582 9 32 18
-91.131252 172.102749 430.177593 77 89 131
-125.047648 127.467561 417.540550 12 36 24
-58.100963 171.667874 439.290667 64 69 108
-58.100963 171.667874 439.290667 64 69 108
-127.373731 142.238069 418.142271 53 70 59
-59.094262 169.137096 439.582872 75 77 118
-59.094262 169.137096 439.582872 75 77 118
-130.006111 137.647915 417.688608 53 75 63
-113.369882 155.958819 424.147129 0 9 3
-17.310999 160.250771 450.319147 64 66 106
-95.169514 172.926319 430.955076 78 89 133
-95.169514 172.926319 430.955076 78 89 133
-64.518231 171.585107 439.328527 150 156 193
-11.388321 162.117004 452.770567 115 117 157
-11.388321 162.117004 452.770567 115 117 157
-12.845877 158.541811 452.189493 48 46 88
-12.845877 158.541811 452.189493 48 46 88
-129.534197 129.157233 418.664265 210 213 204
-53.814530 168.965638 442.630053 81 83 124
-25.484222 163.342583 449.815226 71 74 112
-51.242137 168.631542 443.496132 83 89 124
-128.381789 147.647703 420.950127 62 119 110
-128.182876 147.454464 420.992804 62 119 110
-88.631952 172.305596 433.951664 123 135 159
-35.543838 166.168702 447.759676 131 137 166
-42.172548 167.612422 446.218967 75 79 114
-13.669609 159.785175 453.133869 57 56 96
-13.669609 159.785175 453.133869 57 56 96
-36.453578 166.103077 448.044252 63 67 96
-4.325971 156.088543 455.910873 60 64 93
-125.630736 149.236715 423.063707 32 83 69
-38.878840 167.418456 448.035765 86 90 119
-108.534479 163.589454 429.299021 254 250 255
-107.389867 169.643152 430.856323 60 69 83
-15.728654 161.497939 454.744387 121 122 160
-91.483825 175.018263 436.012459 126 138 166
-8.170662 157.969236 456.491947 113 115 149
-109.582818 164.466429 430.662775 18 5 13
-22.358730 162.741697 453.781843 77 78 116
-18.124437 161.120236 454.850721 57 57 97
-107.909322 173.193312 434.486103 34 42 55
-37.917620 168.455398 452.451563 129 132 163
-28.459433 166.341400 454.907274 155 160 191
-18.911946 161.898255 456.925392 84 85 123
-131.946325 135.903859 425.213051 64 74 91
-30.314222 167.228651 454.737663 148 151 182
-123.756862 171.206033 431.151152 12 13 9
-30.904102 166.517937 454.733896 60 64 93
-67.188263 174.033916 446.265554 73 75 115
-67.188263 174.033916 446.265554 73 75 115
-49.293485 171.313214 451.022816 131 137 174
-28.515348 166.626108 456.844807 84 89 122
-143.369961 139.246678 424.765205 13 18 16
-10.970373 159.943128 460.923958 48 51 82
-12.846376 160.645986 460.789728 53 54 92
-127.381349 159.265697 431.536341 17 65 39
-39.607459 169.593632 455.310822 85 88 119
