ply
        format ascii 1.0
        element vertex 67372
        property float x
        property float y
        property float z
        property uchar blue
        property uchar green
        property uchar red
        end_header
-288.522649 -54.715228 228.650880 76 80 81
-278.136253 -42.323029 210.440588 159 162 166
-288.603377 -55.696267 230.628848 118 120 121
-258.503628 -18.125243 174.215758 89 95 102
-275.890231 -36.140877 200.373888 155 156 160
-286.640286 -63.227373 245.481944 102 99 84
-249.957252 -54.592633 244.300199 146 149 153
-277.048635 -36.840269 201.551604 84 85 95
-255.621028 -2.374391 147.422147 64 73 76
-258.894277 -10.370523 160.708010 154 153 157
-251.380539 -1.909710 148.269892 163 167 178
-283.085632 -66.018438 252.716470 26 28 28
-274.530768 -34.411263 198.556960 157 162 165
-255.418992 -55.187345 244.184184 92 98 103
-252.312517 -56.430155 247.715950 159 163 164
-285.565495 -50.412339 224.297810 102 102 102
-285.565495 -50.412339 224.297810 102 102 102
-249.835944 -4.477364 154.724157 165 164 160
-283.300519 -35.104266 197.575927 44 50 57
-252.147627 -55.275404 247.056603 19 21 22
-263.012195 -64.321625 259.419894 114 117 62
-220.423460 -56.248629 261.414671 127 133 138
-255.736279 -9.051508 161.401498 47 54 63
-255.736279 -9.051508 161.401498 47 54 63
-295.716143 -66.518712 250.961709 129 125 76
-255.387759 -55.388045 246.512938 31 34 39
-254.011488 -13.782908 171.019304 115 120 119
-265.194964 -58.471698 248.751950 140 143 148
-255.157542 -8.829696 161.838770 132 141 161
-266.027212 -65.661091 261.748838 44 45 5
-254.598427 -56.105715 248.723364 177 175 175
-281.620622 -38.170144 205.438399 164 162 168
-283.744335 -64.204931 252.542663 122 124 112
-282.827473 -35.007489 199.669886 179 187 194
-250.707984 -1.169904 150.226426 92 96 97
-250.612879 -1.338427 151.459265 38 45 38
-282.996631 -42.776316 215.063906 60 60 48
-282.996631 -42.776316 215.063906 60 60 48
-251.280522 -6.675383 161.238372 28 37 47
-253.346109 -9.812646 166.333067 172 170 169
-273.961878 -59.876525 250.482202 105 106 102
-260.045409 -58.819765 253.967071 153 153 137
-280.359006 -41.744027 214.748788 165 167 138
-258.616233 -58.547378 254.196978 38 35 14
-249.797106 -7.070100 163.141644 103 109 108
-285.590816 -35.486281 201.996589 166 166 166
-273.680449 -61.160827 253.965473 109 106 75
-273.680449 -61.160827 253.965473 109 106 75
-253.366232 -13.665655 174.477482 114 115 119
-248.617315 -5.878790 162.011397 158 162 163
-248.844385 -4.949385 160.649776 63 67 68
-249.495006 -6.984023 164.178109 108 112 106
-250.671816 2.108829 147.205758 86 95 68
-268.907380 -61.767501 258.340907 78 78 42
-274.942017 -59.779549 253.011084 140 138 114
-249.960661 -7.185183 165.500963 181 184 169
-260.085392 -60.241210 259.756494 168 166 108
-268.638086 -64.403343 264.469743 113 100 44
-268.638086 -64.403343 264.469743 113 100 44
-245.700622 1.800213 150.986242 146 152 141
-246.395230 -4.674260 163.240719 165 167 167
-247.352648 -4.455361 162.739825 48 54 49
-247.781754 -4.982601 163.605678 170 174 175
-243.454719 -0.828596 159.856629 174 172 137
-315.892720 -42.937097 210.996795 255 255 255
-246.599483 -2.857173 162.735271 30 34 28
-264.513445 -58.142668 262.292528 71 67 42
-234.093189 12.774135 141.101491 109 133 139
-240.167165 6.708980 150.324106 150 153 128
-244.369626 2.133121 158.201671 149 155 138
-258.459425 -62.344360 274.671650 121 135 124
-241.266179 9.804866 145.652652 20 22 23
-326.379061 -89.752209 301.646137 47 36 16
-334.381247 -92.978948 304.835248 255 255 244
-238.528538 6.857902 152.820361 155 157 137
-309.838343 -27.082855 190.419769 146 149 153
-239.038706 10.335879 146.109354 139 143 132
-238.495207 10.204631 146.695459 159 160 128
-239.276385 6.759563 153.753722 65 76 68
-325.993443 -88.610065 302.024126 255 254 255
-239.289188 8.190308 151.276612 130 137 116
-237.233973 12.151582 148.144090 59 64 55
-237.083864 6.866898 158.686376 101 107 90
-237.786674 8.531547 156.648135 97 101 82
-238.318491 13.227424 148.330569 173 160 116
-239.380002 13.117708 148.883164 182 177 138
-236.902142 13.298087 149.720728 73 70 42
-250.700021 -56.380534 281.921792 114 127 141
-306.130219 -14.835654 182.356870 163 169 164
-254.489255 6.244509 160.338068 169 167 149
-253.348994 -56.580591 282.450771 42 48 55
-248.573756 11.014342 154.017889 168 164 140
-247.269607 -54.089886 281.016493 92 106 112
-252.518940 12.137418 151.327109 150 151 131
-255.391693 11.947288 150.849581 52 54 42
-254.098630 12.459620 151.154089 36 41 26
-256.652069 8.305853 158.451271 110 115 106
-256.652069 8.305853 158.451271 110 115 106
-261.300516 6.263077 160.881972 78 86 76
-263.264680 4.726456 163.238466 177 181 169
-264.475489 5.436925 162.079012 176 182 171
-264.475489 5.436925 162.079012 176 182 171
-265.786767 6.278679 161.124635 113 130 127
-271.245861 9.130680 154.481626 35 42 37
362.494040 180.684960 20.085178 125 109 120
395.813346 187.556744 11.572503 125 109 120
29.298371 62.681150 82.767022 64 72 101
-5.446749 37.960547 84.228331 169 164 166
-6.030162 37.975329 84.385061 62 65 69
-33.994246 18.125848 85.659498 93 88 89
-32.826459 19.352102 85.673738 161 147 141
31.634843 66.177130 81.817305 156 160 189
19.918732 58.526319 82.058001 154 160 179
19.978987 58.584863 82.055837 154 160 179
28.968292 64.146239 83.492112 34 44 61
29.023343 64.369327 83.464974 129 137 166
133.070278 142.483139 80.041057 104 100 65
62.715656 92.431927 82.698768 156 160 189
9.358732 61.011767 86.449015 59 64 65
14.924796 30.054966 128.744185 157 156 146
9.941580 59.399736 90.672660 114 120 119
9.941580 59.399736 90.672660 114 120 119
10.520077 60.671210 89.605922 56 54 54
10.520077 60.671210 89.605922 56 54 54
14.862548 31.037351 129.108119 150 150 144
10.736996 60.671365 90.167999 176 174 173
10.577887 61.141866 89.637536 157 155 155
10.550382 62.242442 89.263648 167 165 164
10.019659 32.234806 126.924694 95 97 91
3.070661 47.147059 103.960967 254 250 249
8.071781 56.182402 96.010208 140 142 143
8.071781 56.182402 96.010208 140 142 143
10.729138 63.299769 89.055979 151 152 148
11.408996 61.724538 91.669875 105 108 113
11.492427 62.144530 91.235906 146 148 156
10.972705 63.220382 89.718038 48 53 51
11.281545 61.736906 91.897559 90 92 102
11.308634 61.381269 92.392850 109 112 116
9.541655 35.807735 123.371053 92 92 92
9.685975 34.949726 124.641287 167 162 137
11.084294 62.202245 91.380537 161 165 166
10.836142 63.653380 89.519292 83 88 86
10.966780 59.943551 94.281000 192 189 185
10.986588 60.452712 93.689311 167 166 168
12.133820 34.202936 127.420056 183 187 188
8.365686 37.314981 121.213591 134 135 133
8.922192 36.835840 122.260249 168 171 169
9.405378 36.520869 122.981524 86 88 89
10.393286 64.040637 89.063555 63 66 51
6.386150 54.006934 99.143577 184 185 189
10.680055 63.872677 89.659286 82 86 87
10.680055 63.872677 89.659286 82 86 87
10.538318 60.422695 93.946439 160 161 165
13.178170 33.604956 129.530990 128 129 125
13.178170 33.604956 129.530990 128 129 125
10.367931 60.548323 93.994510 170 172 173
3.053745 23.164505 136.813295 255 255 255
6.566824 47.732592 108.072913 60 62 72
6.566824 47.732592 108.072913 60 62 72
7.335185 50.485599 105.110264 21 30 44
10.146984 61.162049 93.409842 115 119 120
7.375339 49.841571 105.977321 184 188 189
9.727935 64.135081 89.394307 23 30 33
10.086372 59.388268 95.736319 113 116 121
10.086372 59.388268 95.736319 113 116 121
9.039043 37.374291 123.018396 50 49 45
6.458888 47.437558 108.687997 171 170 174
6.267443 50.826329 104.334009 21 26 35
9.677746 36.929891 124.158776 180 179 181
10.371264 65.640342 88.195091 65 72 59
10.253194 61.998755 92.746812 177 181 182
10.253194 61.998755 92.746812 177 181 182
9.918539 61.165226 93.594766 164 168 169
9.918539 61.165226 93.594766 164 168 169
7.444086 50.804263 105.162144 119 124 139
5.977570 52.169633 102.536547 102 114 132
6.308986 52.631044 102.260542 38 47 60
8.679423 38.653216 121.751499 124 125 129
6.919979 48.455971 108.232033 37 43 54
9.221549 57.954925 97.841007 177 177 183
9.247096 58.128756 97.655517 111 113 123
9.247096 58.128756 97.655517 111 113 123
9.126011 38.285622 122.914219 134 136 137
9.336907 37.081531 124.667645 179 177 176
6.603935 46.410844 111.196232 20 26 39
9.378508 61.124563 94.186723 168 171 175
9.420579 61.330748 93.991625 105 111 118
6.039157 43.446308 114.694560 74 77 82
11.756086 34.741700 129.483807 46 49 47
11.756086 34.741700 129.483807 46 49 47
-24.776278 -33.588272 193.470287 168 157 105
7.569906 51.104236 105.944216 169 168 170
7.569906 51.104236 105.944216 169 168 170
9.565606 61.564022 93.866014 171 175 180
8.958313 61.263114 94.056851 174 178 183
7.600505 39.654273 120.882332 45 49 54
-25.453034 -35.044768 195.380402 144 127 71
1.403595 23.900634 137.135029 255 255 255
1.403595 23.900634 137.135029 255 255 255
9.583099 38.171205 124.171340 78 93 102
9.067477 63.272548 91.687816 114 123 127
6.195405 40.346172 119.248378 124 127 131
9.357920 37.556234 124.898696 109 108 110
9.192079 37.269062 125.185013 38 43 42
6.303123 52.240610 104.190242 110 123 139
6.484991 41.260234 118.394732 57 63 76
6.484991 41.260234 118.394732 57 63 76
6.149274 45.684206 112.555671 138 139 137
7.572623 39.899173 120.938396 108 114 119
8.525637 60.653239 94.994879 178 180 181
6.600909 50.119823 107.407081 160 163 171
-11.873390 -43.566674 215.991402 163 147 100
6.596310 41.739699 118.182242 159 168 181
11.597101 36.147225 128.608668 121 118 114
6.424327 47.846127 110.348225 144 145 149
6.034318 44.440553 114.498925 164 160 165
6.789479 51.669002 105.773306 144 151 154
11.684295 35.516810 129.759955 37 43 38
6.543523 52.228135 105.013406 62 65 69
8.893425 38.904762 123.706090 102 111 115
8.141720 63.598132 91.424012 164 169 168
8.212636 64.251411 90.628183 113 123 130
7.030788 40.313634 120.814931 127 134 137
6.160787 49.146953 108.941936 149 155 168
6.325057 42.197239 118.013477 142 144 152
-12.184348 -44.425437 217.981815 164 157 88
5.525265 48.376939 109.714973 78 92 104
9.542874 38.973880 124.487710 33 36 44
-12.908140 19.704662 135.106850 122 121 60
5.871588 44.495133 115.103376 144 156 166
-26.293486 -28.508496 189.010823 255 255 255
7.923303 62.704784 92.926031 183 183 183
-25.497991 -26.612765 187.264335 125 113 65
1.052319 21.483116 142.187357 100 87 49
1.052319 21.483116 142.187357 100 87 49
-26.493114 -28.367025 189.425504 58 52 41
5.436283 45.930335 113.420570 141 147 160
9.101973 38.849872 124.935901 32 41 51
5.254632 43.799239 116.164720 170 176 187
7.157153 57.763690 99.251133 172 173 171
5.326242 42.945167 117.325759 37 46 56
5.326242 42.945167 117.325759 37 46 56
-18.645591 -35.246137 203.536487 117 110 83
6.990097 64.001685 91.115528 108 114 119
5.933920 41.719759 119.380164 166 173 193
5.933920 41.719759 119.380164 166 173 193
5.135927 44.073817 115.829802 157 162 165
6.731521 40.742618 121.210778 101 114 122
8.735300 39.652753 123.917532 127 137 144
7.048790 57.799828 99.351406 93 94 98
5.414639 44.454145 115.682912 148 152 157
6.961209 41.327348 120.763695 149 149 149
5.909744 43.807656 116.879785 138 144 151
8.648250 39.929649 123.660398 153 163 173
8.627620 41.662720 121.504462 18 25 34
1.631816 22.430858 142.140102 171 165 122
-26.836830 -30.703744 193.215954 53 45 38
8.586492 39.425045 124.474013 123 130 139
5.450616 44.050035 116.573977 134 137 142
5.844527 41.394389 120.287716 106 111 110
5.841907 44.149959 116.997111 40 49 62
-24.959540 -26.211721 189.323056 112 104 74
-13.542065 -39.781159 214.376473 145 128 79
6.738149 41.761857 120.801902 146 156 173
-25.162646 -26.572609 190.015972 128 119 86
-25.219589 -27.075583 190.666068 142 133 95
6.735201 41.122738 121.843028 62 72 82
6.212012 49.340904 110.793269 168 169 173
5.997890 61.324763 95.001715 173 175 176
-15.390086 -49.041247 225.872064 184 173 105
7.451958 40.119022 123.820639 35 46 60
2.364757 23.446488 142.516828 89 82 57
8.869736 40.013400 125.021911 65 76 84
6.254423 48.264366 113.030946 127 132 135
6.449004 40.782416 123.295403 167 169 170
6.361954 41.660887 122.103858 160 164 165
5.997105 39.983466 124.424744 122 125 129
4.828426 63.550568 92.615235 125 127 128
-15.408345 -48.678744 228.489804 131 116 67
-22.153431 -19.910391 187.245858 49 40 27
-16.789086 -25.051829 197.686052 66 64 56
5.677948 66.520613 90.109676 165 171 184
-12.159704 -23.674102 198.825347 80 82 83
8.000538 40.377033 126.461613 39 39 45
5.342434 40.222728 125.180936 130 139 143
8.209272 40.388697 126.786876 34 35 31
8.209272 40.388697 126.786876 34 35 31
11.641436 38.132575 132.020044 99 104 102
11.641436 38.132575 132.020044 99 104 102
7.949898 40.676901 126.538551 118 122 127
7.949898 40.676901 126.538551 118 122 127
8.032038 40.734145 126.523602 118 122 127
-15.771961 -23.558664 197.535551 70 74 63
5.242701 40.447196 125.321245 133 136 144
7.543007 41.023907 126.102018 146 146 140
4.840896 40.552387 125.385475 75 81 86
7.749740 41.031423 126.618385 10 14 15
7.572630 38.937154 129.410696 122 124 78
-31.804913 -4.816163 163.875079 111 104 41
7.644314 41.455466 126.392269 116 120 121
-15.616870 -22.874142 198.294389 76 84 77
7.530321 41.494426 126.429570 138 142 136
7.530321 41.494426 126.429570 138 142 136
-11.939040 -25.089863 203.960681 34 28 23
5.051775 41.644123 124.860966 156 161 162
-10.351067 -42.120224 228.214717 255 255 255
-15.150042 -45.356023 229.675794 185 175 105
12.332422 38.903475 133.387494 200 202 180
-34.336171 -12.856020 174.338233 127 116 72
-16.618946 -23.664613 200.143003 70 73 58
-13.898979 -15.494929 190.866184 123 132 106
-10.258342 -25.729567 206.968045 42 35 26
4.854435 68.051887 89.740008 102 99 101
-13.952121 -40.420267 224.550962 81 75 38
-16.013086 -9.342279 181.447291 85 79 72
-16.013086 -9.342279 181.447291 85 79 72
-11.685780 -32.002068 214.828086 85 76 49
4.304910 41.675878 125.338042 154 155 146
-13.355102 -16.204442 192.790639 159 162 123
-31.840074 -3.079165 163.747025 145 132 100
-10.150603 -25.877044 208.066988 101 94 74
-11.487466 -10.070444 186.055052 24 20 19
-14.047629 -42.745650 228.952360 100 94 49
-10.736039 -26.808396 209.535551 46 37 23
4.212551 42.007402 125.481522 132 135 113
-24.733603 -15.051702 185.194802 255 254 255
-24.733603 -15.051702 185.194802 255 254 255
-11.323734 -32.999042 217.926073 191 175 116
-11.157248 -32.233751 217.018867 206 189 133
-33.868167 -11.108997 174.454129 135 124 97
5.324497 68.114406 90.922165 181 181 193
-10.758029 -26.476797 209.649181 144 131 85
164.681160 169.688535 59.622556 42 52 52
-35.182026 -13.083455 176.778972 142 128 80
-14.085481 -25.668678 207.048225 90 88 70
-11.272034 -27.925146 211.902380 149 139 85
-13.903211 -39.636552 226.440382 45 41 22
-12.385489 -30.765709 215.337372 148 136 78
3.236683 42.564014 124.962378 175 174 146
-32.406366 -1.966926 163.902342 133 125 88
-32.565439 -3.972208 166.737068 36 28 15
-32.864967 -5.705000 169.114077 111 104 95
-32.244530 -3.059217 166.031456 67 63 35
-13.144280 -34.867904 221.379089 187 168 111
4.517427 42.483911 126.459968 106 109 64
-13.985689 -37.915996 225.197339 49 45 16
3.672293 43.092859 125.230825 159 159 111
-12.710597 -29.889187 215.170074 67 60 35
-9.623431 -8.695748 188.293064 20 14 9
-32.989755 -4.198375 167.921805 124 116 86
-34.812826 -11.648377 177.027738 93 86 69
-35.513154 -12.996800 178.744459 47 44 30
-12.166774 -17.840894 199.752998 112 108 90
33.603892 58.424699 123.007965 99 104 102
-9.822325 -9.670934 190.163267 20 15 14
2.873928 44.028974 124.146795 171 169 169
2.873928 44.028974 124.146795 171 169 169
-32.749960 -4.570229 169.224155 54 50 31
-9.740378 -9.901090 190.626836 25 20 19
6.305601 42.779911 128.084302 61 66 39
9.921842 41.321155 132.415640 119 127 116
-33.328304 -3.231869 167.435515 32 29 24
-12.338169 -18.127181 200.806117 113 109 85
3.198844 66.778719 93.332684 189 189 189
-12.793867 -27.224538 213.148928 45 36 22
-12.524134 -29.873446 216.998506 53 54 34
-12.524134 -29.873446 216.998506 53 54 34
-8.267637 -4.275795 184.438348 186 178 108
-33.796689 -1.558862 165.123534 130 130 100
-13.372274 -27.374655 213.256025 116 106 76
-33.495685 -7.012915 172.976279 56 53 39
-12.767413 -29.280016 216.473317 118 117 91
-34.158963 -1.439078 165.200138 119 118 80
-34.052038 -3.584786 168.230903 30 25 24
-13.968654 -34.016910 222.783971 166 152 94
-13.207379 -31.856862 220.289373 173 155 94
2.869488 30.180305 144.441342 173 169 151
-13.014288 -30.891547 219.387531 164 147 91
-7.343774 -1.906076 182.765675 56 45 31
-13.110757 -31.810811 220.741606 185 171 113
2.745147 30.329400 144.415128 117 117 81
2.049111 45.225647 123.592794 186 184 174
-6.988526 0.863852 179.780209 54 41 27
-8.336478 -4.262389 186.227691 72 61 47
-7.452486 -0.844456 182.076883 48 36 18
-35.944909 -2.764381 167.745221 158 149 122
-8.753226 -7.088509 190.292931 181 170 110
-9.083158 -8.579539 192.478228 179 164 101
-10.280942 -14.334998 199.928844 199 181 122
5.449887 37.186399 137.776244 190 187 142
-41.194865 -5.165318 169.236088 255 255 255
-35.636321 -5.234206 172.714508 27 24 19
-8.228579 -4.019270 187.628865 134 126 66
-35.860375 -7.289712 175.580561 45 38 23
-13.463646 -27.729154 217.772341 110 106 78
-8.241928 -4.596907 188.559508 113 101 53
-8.604727 -5.792822 190.068519 117 106 48
-8.604727 -5.792822 190.068519 117 106 48
2.357305 31.275609 144.942713 100 105 76
6.163298 42.355850 131.829059 88 91 69
-36.459526 -6.579861 175.185049 43 33 26
10.864730 42.374259 135.027170 159 166 161
-11.153555 -19.139941 208.310699 136 120 78
-7.625900 -4.543296 189.946508 192 180 114
2.189497 46.249214 124.560905 75 79 44
-10.593170 -15.814741 204.270196 204 193 125
-10.442687 -15.635292 204.134345 204 193 125
-8.207758 -2.758618 187.392020 204 188 122
3.832003 44.849721 127.669072 116 119 69
-8.317137 -1.277423 185.530245 192 173 116
-8.017129 -0.935419 185.285127 192 173 116
-8.293278 -2.458695 187.311685 89 73 36
-9.228349 -8.295658 194.997966 59 42 15
-8.651221 -4.096897 189.444935 92 78 56
-9.762824 -9.936776 197.114825 51 47 42
-11.106764 -18.735914 208.746719 174 168 123
-8.184779 -1.671491 186.435854 91 71 36
-7.546809 2.003414 181.702614 104 88 46
-12.219546 -24.109523 216.021776 147 141 112
-7.871408 3.425994 179.860282 175 171 120
-10.818828 -13.252717 201.703882 114 108 85
-10.655721 -11.396775 199.276590 125 118 91
-11.500897 -19.325280 210.040474 30 24 11
-11.800279 -19.356248 209.937453 32 27 26
-12.306049 -22.494832 214.151978 137 138 96
1.465465 66.466713 96.527052 138 141 126
-9.182023 -1.277411 186.252356 62 56 45
6.641085 43.386859 132.513523 49 51 31
-11.102092 -11.631154 199.848163 28 23 20
9.153723 43.350238 134.169078 99 111 113
-7.605899 4.353907 179.457700 187 179 126
-11.242871 -3.694774 188.878655 110 108 78
-7.898228 3.798021 180.365896 52 45 36
-38.609180 -1.902469 170.221484 255 255 255
-44.311643 -13.787584 183.699739 34 27 18
10.518483 43.431574 135.544229 157 160 134
2.233011 33.117744 145.285988 175 183 173
6.165249 45.912671 129.442573 58 61 35
10.301444 43.539533 135.488617 43 50 45
6.762153 44.647029 132.193124 78 81 55
-7.939482 5.444430 179.579520 188 187 136
3.336743 70.582199 93.355089 124 135 133
1.184819 61.172765 105.601370 70 62 45
-7.515262 6.783604 178.589571 55 48 39
-12.026868 -20.499171 215.324426 43 33 23
5.396601 44.440559 132.555866 99 99 51
-7.771873 6.390306 179.422808 167 163 110
4.187410 71.631163 92.854679 161 167 180
5.369085 46.250817 130.059445 30 37 24
3.341842 46.157786 129.086399 54 61 46
-9.463736 3.030031 183.558738 132 128 99
-9.463736 3.030031 183.558738 132 128 99
5.407443 44.498944 132.776010 17 18 0
-12.365834 -2.131309 189.355624 80 77 72
-11.013421 -14.654362 208.347344 41 29 17
-10.493428 -26.947659 226.655698 86 77 34
-8.181786 6.213595 180.297542 59 49 42
-11.968320 -17.856921 212.950301 153 147 118
-12.417933 -19.746415 215.487909 36 33 25
-12.243409 -18.932666 214.453340 132 134 105
2.281201 70.061642 94.658887 186 188 188
2.281201 70.061642 94.658887 186 188 188
-11.659703 -16.084039 210.707974 146 141 116
0.810519 61.393410 106.314492 194 184 137
-11.384659 -14.607342 208.758330 150 144 121
-9.552773 2.343663 185.683441 40 31 22
0.834530 61.389887 106.549394 91 87 76
-9.114484 3.448109 184.580064 40 31 21
1.292082 48.063502 126.272619 168 165 120
-12.095974 -15.490337 210.332346 39 35 30
1.386229 47.323403 127.716076 130 127 83
-6.833252 9.482004 178.269553 51 45 38
-38.236192 -71.358305 277.461863 115 100 74
-2.063975 46.791878 127.286172 81 84 22
-9.559985 -24.188520 226.186180 193 184 120
5.101546 47.195354 131.035364 78 70 17
-11.817167 -9.874725 204.454470 120 123 114
-12.007865 -10.938700 206.074619 47 42 39
-12.871747 -13.225368 209.363770 88 90 71
-39.562601 -9.471201 188.537300 86 87 71
0.326778 34.637150 147.454667 59 72 74
-7.141552 10.166596 178.962433 171 154 98
3.314798 40.494549 140.721440 67 86 71
-14.213437 -31.080490 235.669112 57 50 55
-10.125332 -5.434427 200.596595 53 50 46
1.562972 36.149958 146.645510 115 141 135
-12.483869 -9.639362 205.738544 149 148 114
-12.483869 -9.639362 205.738544 149 148 114
-15.787822 -33.715904 239.226508 71 60 30
-15.787822 -33.715904 239.226508 71 60 30
-13.366893 -12.795340 210.170698 104 101 86
4.195586 42.073581 139.746332 89 110 102
-13.094756 -12.150889 209.460449 39 37 27
47.719210 64.272571 132.860839 255 255 254
-12.253344 -16.857079 217.857051 78 73 64
-41.581228 -69.715917 279.213405 35 29 18
-5.304202 13.060039 178.011239 82 70 28
-40.263027 -68.414861 278.387403 69 67 57
-12.767783 -9.980996 208.153415 147 141 100
-12.474129 -8.788905 206.572032 145 141 112
-12.804820 -10.518824 209.209442 39 32 29
-27.508110 -56.085300 269.022155 43 36 19
-10.455632 -4.488415 202.345085 71 67 39
-10.362607 -19.643545 224.998069 12 10 9
-12.328013 -7.848414 206.493998 57 45 33
-12.814724 -27.205142 235.002470 119 102 46
-12.814724 -27.205142 235.002470 119 102 46
-7.996415 -17.791322 224.276447 181 162 94
-12.217718 -13.970299 216.405749 170 173 134
-9.595150 -18.207419 225.068235 13 11 11
-11.442055 -21.721135 229.584098 165 151 103
-13.501543 -16.299643 220.387340 29 26 18
-23.693770 -50.070751 265.248013 31 20 12
-9.781877 9.010562 184.924507 83 77 72
-11.967712 -12.820612 216.434884 50 45 46
-25.407279 17.452842 163.517249 255 255 255
-25.407279 17.452842 163.517249 255 255 255
-10.207853 -19.223888 227.436185 181 168 100
-3.343002 17.148986 176.907027 49 42 33
-11.937175 -16.797097 223.191214 147 136 92
-3.633993 16.196020 178.389716 204 190 132
8.658697 47.785205 137.962615 19 31 41
1.725172 42.019331 142.708278 126 145 124
4.400672 49.679700 132.729447 196 180 113
-11.872207 -21.442188 230.553627 184 165 108
-3.082745 18.256730 175.863981 127 121 92
-17.066047 -31.033680 242.455888 191 189 149
-12.819381 -19.357727 227.517223 50 43 26
-7.882877 8.816488 187.892008 35 30 27
-3.849402 17.635354 177.029204 148 125 80
-12.226744 -6.600338 208.982301 111 110 89
-16.710989 -30.571607 242.709613 47 41 36
-15.334655 -26.715431 237.676668 47 42 33
-25.712216 17.389205 165.151024 55 52 38
-12.593241 -7.505433 210.571337 27 23 18
1.948400 75.306672 93.666315 162 160 149
-13.859053 -21.139960 230.798507 44 42 18
-1.842488 21.260592 173.495674 14 9 6
-18.419214 -31.884879 244.624519 39 38 28
6.583945 48.278201 137.420261 68 85 81
-12.800686 -11.200140 216.681385 29 27 26
-14.012885 -20.455903 230.174422 46 46 34
-16.190110 -26.314551 238.202548 194 189 134
-17.797078 -29.386005 242.099190 138 134 81
-12.385278 -3.804585 206.333518 79 80 60
-6.816479 13.706881 183.403146 58 57 47
-6.456573 15.078083 181.659865 75 87 75
-17.581612 -28.947133 242.606211 43 37 30
1.298255 74.060535 96.371961 113 117 112
-5.933241 17.082329 179.317868 18 31 39
-7.284727 12.044330 186.377144 183 164 103
-6.347688 16.107030 180.907345 29 38 52
-8.103348 11.526693 187.077689 189 177 119
-15.987948 -25.510332 239.600635 173 166 116
-9.527554 4.101930 198.065865 130 126 98
-8.789953 8.281329 192.157161 177 157 99
-7.362704 13.834980 184.508479 66 72 67
-9.590972 3.806464 198.899126 155 153 119
-8.169468 10.857415 188.949752 66 55 47
-9.428788 4.567252 198.184633 75 65 41
-7.132863 15.696833 182.419455 79 95 108
-0.838622 69.592780 103.094971 100 91 82
-7.958525 12.115306 187.508047 178 165 119
-7.791575 12.933911 186.364901 154 150 97
-8.037091 12.284102 187.560225 150 144 97
-8.104707 13.614382 185.797036 36 33 29
-9.714835 -13.417764 226.988363 131 118 62
-11.790641 -2.665181 209.544230 20 18 8
-14.839773 38.078699 145.257819 55 63 33
0.847805 74.980509 96.821356 181 180 166
103.142500 118.083680 97.053862 70 100 87
-0.689312 41.392392 148.508823 70 100 87
1.481233 45.925629 142.923152 50 75 79
-15.729903 -19.371690 235.357070 202 194 135
-9.069692 8.637689 195.670354 17 12 13
-1.311794 70.126486 104.191363 106 95 81
-23.197094 22.190149 166.795063 78 78 64
2.842779 52.583104 133.917940 155 145 61
2.842779 52.583104 133.917940 155 145 61
-10.550413 2.905044 204.014111 23 14 5
-1.194202 71.111125 102.779198 90 90 72
-9.422892 5.408352 200.775194 24 17 14
-18.824534 -24.894789 242.946434 40 32 25
1.769201 76.692837 95.804572 81 87 82
-8.594739 9.039576 195.810139 106 94 76
-9.050193 6.954368 198.890626 88 80 67
-6.873259 17.001313 184.405446 75 79 74
-24.345069 23.693672 164.277649 122 125 103
-10.792229 0.218604 208.984447 170 154 118
-7.581604 11.498009 193.215036 45 36 23
-20.252991 -25.425118 244.461966 126 121 90
-10.239296 2.099632 206.966901 50 39 17
3.775706 31.596461 168.461382 135 136 97
-11.149977 -0.323778 210.376954 52 41 27
-7.950268 9.733956 196.369040 85 71 52
-21.028481 -26.695797 246.441865 83 83 65
-19.386926 -23.793423 242.966843 87 77 53
-19.386926 -23.793423 242.966843 87 77 53
-0.257889 44.925612 145.621240 74 106 95
-26.505044 22.636539 166.223526 163 157 120
-8.817632 7.052772 200.548339 168 156 108
-1.098467 43.895775 146.923172 108 146 124
-1.098467 43.895775 146.923172 108 146 124
-31.488064 -52.676636 282.272959 76 61 35
-5.688553 20.188577 182.133198 39 38 34
-10.639570 1.731366 208.561563 166 147 102
4.652595 32.298762 169.110072 200 194 117
-21.151984 -24.968961 245.576692 28 25 17
-6.122846 16.604713 188.374472 187 173 121
-14.918679 23.045452 173.424339 17 13 12
-12.630452 -2.831345 215.788007 51 42 32
-19.981328 -22.698015 243.312454 45 36 22
-18.490520 -19.740455 239.731455 187 190 134
-18.490520 -19.740455 239.731455 187 190 134
-16.158497 26.671493 167.460513 16 12 11
-13.232967 -6.447399 221.597147 139 135 77
-1.384256 68.412590 109.433186 178 177 163
-15.908413 26.881379 167.309844 16 12 11
-9.129016 7.907198 201.251793 149 138 86
-19.567086 -21.591237 242.327952 168 161 134
-14.644641 23.806390 173.052800 65 75 62
-24.374975 -36.836883 264.037895 34 34 20
-2.136384 67.927706 110.097265 155 144 106
-17.846544 -17.826909 237.864375 116 115 81
-13.273981 -1.898790 215.058136 69 51 20
-23.786838 -35.566023 263.066792 38 36 26
-13.906601 -2.604288 216.096210 186 175 137
-14.566928 24.021068 173.391652 34 34 22
-13.755475 -1.869606 215.095663 196 180 127
-1.093426 42.910984 150.812542 31 36 45
-2.142122 68.390203 109.699857 77 71 42
-2.426968 68.449384 109.679461 177 166 114
-2.206929 68.408811 109.896982 189 185 166
-14.752744 -2.352659 215.890956 34 32 24
-33.271083 -51.238149 283.843660 111 115 79
-1.345136 45.494488 147.002196 102 112 89
-7.952930 19.237070 185.465527 189 179 125
-19.715728 -19.747792 241.316080 62 54 37
-19.952685 18.523586 180.085850 83 78 75
-1.128523 45.814702 146.829808 85 94 68
-14.800295 24.928105 172.927761 104 105 79
-18.865630 -17.713761 239.170742 65 57 50
-20.402263 -20.423441 242.794657 44 37 28
3.597054 52.762949 138.737583 18 29 27
-16.405585 -10.850339 230.008006 161 164 118
-1.740242 45.821384 147.401702 107 119 91
-22.532110 -22.472112 245.817995 94 92 82
-14.621039 29.854161 166.221464 134 129 108
-35.001287 -50.662160 284.472799 104 111 90
-14.913340 -6.419357 224.603176 78 72 53
-16.780777 31.511313 163.121879 255 254 253
-38.746110 -43.718326 272.486186 85 78 61
-14.328618 31.775713 164.174759 84 78 49
-21.592842 -19.466637 243.276453 141 131 121
-2.441745 45.084965 149.462163 69 103 92
-2.441745 45.084965 149.462163 69 103 92
-16.797972 31.849012 163.141072 58 52 47
3.774312 53.667939 139.113724 100 114 110
-16.685706 -9.172441 229.586744 137 132 111
-1.510529 46.709642 147.518420 120 130 107
-16.239692 -8.252748 228.569055 79 68 54
-14.953235 27.614459 171.311724 106 101 86
-16.509798 -8.546168 229.123902 68 61 42
-15.076135 31.664670 164.840496 25 20 17
-14.959005 32.070616 164.410985 18 14 13
-2.585120 45.365813 149.670970 87 123 107
-17.521635 -10.645017 232.572055 122 126 101
-15.487067 26.621667 173.490119 37 29 22
-15.853991 25.971505 174.435627 31 22 18
-14.453448 -4.797177 225.223422 137 137 113
-36.029378 -39.902660 270.673966 120 114 73
-36.029378 -39.902660 270.673966 120 114 73
-18.439505 30.786708 165.497994 255 255 254
-16.231121 23.725480 178.752518 143 145 123
-3.161194 70.976627 109.217310 147 139 102
-15.269737 6.852136 207.816601 125 118 79
-23.464642 -18.244578 244.578505 44 37 34
4.603082 53.650945 142.023945 22 27 26
-16.462740 25.198820 177.609825 27 25 24
-2.244382 48.647746 147.178471 175 180 165
-18.673708 22.515155 181.400120 139 139 93
-3.326055 46.978545 149.416590 157 169 141
-16.368200 3.766466 213.531590 81 77 66
-36.115938 -38.344851 272.451997 158 143 111
-19.756787 -4.805112 226.224947 53 50 46
-22.403388 -15.562373 242.557669 160 151 131
-22.403388 -15.562373 242.557669 160 151 131
-20.825744 -13.508226 240.038514 148 138 121
-24.913536 -18.581176 246.366858 54 42 40
-21.898519 -14.623146 241.716218 156 148 125
3.037425 54.859000 140.480304 110 120 108
-12.008151 20.666112 189.436674 174 163 103
-3.351044 55.996454 135.809529 108 113 62
-16.093615 8.655199 207.449436 40 34 21
-3.320885 74.187481 105.879414 129 119 89
119.095254 130.077314 87.870806 255 253 244
-16.321310 29.380703 173.204827 23 15 15
-50.277621 -55.183721 295.621896 67 65 41
-18.238829 25.557065 178.843629 43 34 20
-15.651231 8.204314 209.007764 31 28 24
2.905504 55.258614 140.826488 84 110 92
-16.671129 29.188567 173.706841 103 97 74
-16.855097 29.227960 173.689616 76 79 54
-4.864113 44.957101 154.189336 28 31 35
-15.358596 -2.602713 227.637029 160 163 147
-18.480709 30.580127 171.079242 78 77 67
-17.937937 26.546690 178.141034 169 163 110
-21.155281 -10.725741 239.195919 168 164 129
-4.225715 58.751869 132.519138 87 81 28
-16.335638 -3.089477 229.429388 85 84 64
-4.184949 48.120284 150.336063 163 169 134
-15.128936 -0.760971 226.257038 125 125 85
-31.428915 -22.828606 255.240536 194 186 146
-0.484530 79.706550 99.987364 106 114 103
-3.282956 77.250475 102.700889 177 178 146
-20.976721 -3.379412 228.472590 85 81 70
-46.882024 -47.738746 289.896226 255 255 254
-30.535117 -33.841935 275.374269 190 169 107
-4.701704 48.499966 150.909734 142 161 142
-46.172264 -46.681172 289.874172 253 252 254
-14.491089 22.397906 190.283144 144 145 106
-14.962365 23.452288 188.265085 16 13 15
-17.795117 13.508253 203.632951 39 36 21
-25.865915 -10.074130 239.271140 51 39 21
-33.874795 -21.210058 253.928661 143 140 102
-4.868841 59.381080 133.156598 76 75 15
-4.868841 59.381080 133.156598 76 75 15
-18.570702 12.531462 205.170679 108 106 88
-16.870366 16.119030 200.073981 54 49 34
-20.952432 0.586821 224.182200 33 25 18
-12.382636 33.835879 172.661293 61 53 40
-17.318700 16.185129 200.088954 45 39 28
-0.062369 58.102578 138.210344 159 155 77
-18.128720 14.647649 202.312613 119 115 91
-12.201072 35.323942 170.437026 135 135 111
-22.927505 -2.717790 229.186726 138 127 89
-0.843638 58.004701 138.018477 168 168 104
-17.671062 15.577348 201.051307 125 121 92
-17.671062 15.577348 201.051307 125 121 92
-1.254639 81.922299 97.397006 126 127 87
-12.478938 33.454379 173.578513 55 48 33
-18.652180 13.889410 203.509641 143 135 112
-16.376182 19.286777 195.702589 156 152 87
-19.593866 11.386383 207.515502 85 83 75
-36.720607 -23.452277 257.652259 42 29 7
-24.591619 -5.932606 234.283137 173 152 100
-36.211857 -22.918174 257.092237 42 29 7
-5.699946 59.741926 132.943749 78 73 0
-3.065483 78.635174 102.396202 173 174 165
-23.933199 -4.075306 231.836009 176 156 99
-16.833389 19.876896 195.112550 177 173 115
-18.472874 15.457641 201.769280 125 123 99
-12.240369 37.269568 167.993176 79 81 59
-30.373648 -31.802255 275.854850 200 186 128
-20.368139 7.227339 214.917707 33 30 25
-30.058214 -30.434445 273.869014 189 172 116
-18.105963 16.653754 200.211620 49 43 30
-18.105963 16.653754 200.211620 49 43 30
-28.700626 -28.806284 272.073412 213 199 140
-5.661241 62.033010 129.717612 186 176 88
-17.116527 19.969544 195.400023 55 52 14
-36.206630 -18.920913 251.703644 189 183 136
-5.636028 62.632740 128.817391 182 175 88
-20.577896 7.590598 214.920783 119 116 71
-18.360245 17.016152 200.337005 108 104 75
-12.938394 33.524415 174.997425 55 52 38
-4.353924 50.696295 150.193441 93 112 109
-17.571850 19.253035 196.996510 142 137 98
-40.461123 -38.357347 283.665419 62 57 56
-5.689062 59.963423 133.880913 67 63 0
-31.036681 -31.422862 276.850176 189 171 106
-37.253693 -18.473974 251.820922 186 181 126
-17.669190 20.663682 195.112038 48 42 29
-18.316825 17.661799 200.271320 30 25 22
-13.613850 33.035499 176.482344 40 37 33
-5.390947 63.253891 129.186785 185 177 100
-5.023116 71.948063 114.526212 187 185 161
-3.668046 79.031503 103.185260 110 118 108
-13.320249 33.882415 175.667131 52 52 40
-17.478804 20.602673 196.330643 134 127 70
-12.759203 40.546802 164.675891 75 72 41
-4.972118 67.564332 122.389698 128 127 77
-4.989332 68.018347 121.657026 134 130 82
-27.484545 19.494188 193.817127 51 50 60
-13.319948 36.961102 171.097863 31 31 25
-13.161254 37.082756 170.998919 31 31 25
-13.598986 35.441571 173.803627 45 44 18
-2.598963 81.348628 100.685251 156 158 136
-13.128537 38.797161 169.083548 172 158 99
-16.764657 22.671825 195.261872 64 52 34
-13.545570 38.239568 170.168626 31 29 0
-4.427478 75.205630 110.943580 178 175 171
-4.427478 75.205630 110.943580 178 175 171
-17.004801 22.504930 195.879531 149 147 83
-42.777780 -17.086102 251.422453 187 178 115
-29.589197 2.087150 224.931049 210 192 133
-13.918009 36.001807 174.508083 32 31 10
-14.064337 35.970333 174.956858 155 156 100
0.617922 57.783175 144.468260 77 89 89
-43.110728 -14.472790 248.012376 191 186 123
-14.133102 37.307608 172.821629 155 158 113
-14.129491 36.860678 173.637009 152 144 107
-14.199030 34.845087 177.186918 155 155 109
-14.348780 36.350998 174.494922 166 166 118
-0.097172 58.572620 143.054128 25 30 29
-42.598754 -13.843213 247.835851 139 132 69
-14.178270 37.138379 173.572326 40 31 18
-6.428900 60.418177 136.946297 77 73 8
-14.147310 37.462038 173.099232 40 31 22
-1.922173 83.018446 99.890971 185 182 168
-33.593076 0.180885 228.583837 60 41 26
-44.983989 -16.826840 252.724218 204 195 152
-42.845455 -11.959746 245.487642 118 111 62
-42.845455 -11.959746 245.487642 118 111 62
-34.004465 -0.186723 229.375029 229 208 133
-43.360671 -13.587740 248.109293 138 130 71
-14.594272 34.913921 177.872097 43 46 14
-42.961073 -12.685448 247.050238 196 190 131
-46.329680 -18.125460 255.182171 143 135 68
-6.112580 64.363152 130.957437 122 121 33
-14.774387 34.761819 178.490269 117 124 79
-31.539622 6.044234 220.515800 56 53 39
-46.222487 -17.219950 254.100943 166 162 104
-44.549599 -10.990130 244.445252 191 178 122
-13.658428 41.959974 167.077315 152 141 89
-6.187852 63.234466 133.504605 113 116 44
-5.714189 53.079289 151.591861 62 99 121
-14.762455 36.683244 175.893629 40 35 26
-17.333126 24.690333 195.702255 220 214 139
-5.882980 66.889739 127.307987 180 179 98
-5.794820 70.329899 121.335995 177 175 140
-5.681122 53.387386 151.364267 133 172 180
-3.047414 82.382810 101.706541 158 162 157
-21.850760 22.889046 197.089207 117 124 103
-31.754276 7.962107 218.547058 176 164 106
-14.807017 37.225860 175.501490 167 156 104
-5.500280 71.754080 119.526148 117 118 98
-5.500280 71.754080 119.526148 117 118 98
-14.811337 38.679180 173.275602 52 44 37
-6.182711 62.691307 135.236144 173 167 78
-5.819411 68.228400 125.691593 138 136 78
-14.858268 38.861966 172.985196 136 133 112
-33.699796 5.529720 222.603226 202 190 142
-6.033191 64.628386 132.099533 184 176 129
0.050844 58.828169 145.394385 18 25 28
-28.436801 23.760484 193.216014 255 255 255
-32.439595 8.582112 218.240237 188 169 124
-26.561183 20.283884 200.520754 149 150 111
-46.999502 -7.447967 239.905334 206 191 128
-14.975598 40.403554 171.172929 67 54 8
-14.598754 43.699104 165.608072 83 74 36
-14.813475 41.954130 168.696856 141 123 76
-15.430245 37.736177 176.039827 154 159 114
-5.274050 76.990694 111.568069 177 175 174
-5.852484 67.233181 128.641117 114 117 31
-15.270211 39.389274 173.412955 179 173 106
-26.669648 21.407843 199.793708 195 197 167
-47.130215 -10.693112 246.752667 147 133 85
-0.652933 63.365346 138.359451 128 122 51
-5.844171 66.574550 130.207396 116 122 35
-6.059458 66.647631 129.999614 119 123 41
-2.389866 84.214395 100.577378 172 174 155
-49.330449 -6.706982 239.261389 97 90 41
-5.861977 67.106354 129.379880 132 134 58
-21.201842 32.174844 184.023833 197 198 142
-0.361183 60.444152 144.023585 106 123 126
-14.894503 44.476417 165.338242 161 154 105
-5.028873 77.197778 112.080526 135 131 130
-21.298428 32.612589 183.636391 204 206 146
-21.298428 32.612589 183.636391 204 206 146
-15.389849 41.059819 171.484971 36 41 20
-53.362912 -7.260714 239.079881 65 56 22
-6.155998 66.126215 131.379652 180 175 150
-21.236128 32.941878 183.217621 17 21 9
-15.570559 41.874704 170.417476 144 151 136
-21.649610 32.418752 184.368682 137 130 73
-21.649610 32.418752 184.368682 137 130 73
-15.595710 42.245677 169.838381 166 172 155
-15.355213 43.001401 168.641579 150 153 91
-6.462816 62.934601 137.456346 140 142 120
-6.295347 54.775649 152.227759 142 173 174
-6.133607 64.434683 135.231507 162 162 156
-52.714550 -6.267478 239.487982 61 56 23
-50.540471 -10.323103 247.930050 199 188 144
-22.446361 32.715935 184.487414 188 190 130
-4.522929 83.190787 102.786696 108 113 112
-22.399369 34.063929 182.405972 135 131 106
-22.399369 34.063929 182.405972 135 131 106
-28.895918 22.178708 200.674868 187 187 141
-53.127098 -5.886417 239.316845 127 112 66
-52.686012 -5.780147 239.564157 153 144 101
-52.686012 -5.780147 239.564157 153 144 101
-22.686896 34.015417 182.770455 28 26 18
-50.877112 -6.538292 242.076993 191 183 113
-21.587200 39.255571 173.963904 130 126 115
-51.448411 -8.707248 246.032906 209 202 153
-5.748674 66.287833 133.201659 81 84 88
-5.491058 67.415184 131.382620 90 95 98
-5.491058 67.415184 131.382620 90 95 98
-14.968801 48.079628 161.631775 56 56 42
-51.713979 -6.105672 241.481376 114 107 52
-4.573930 63.745415 138.584518 54 66 78
-5.444917 68.993253 128.882682 102 108 115
-5.653697 64.507318 136.928773 53 57 62
-4.287397 63.781846 138.916254 124 135 139
-22.181132 38.245493 176.384437 132 125 105
-22.181132 38.245493 176.384437 132 125 105
-18.052450 38.236773 178.445601 47 39 32
-53.067923 -6.713586 242.759776 205 198 135
-5.343862 68.188745 130.508053 158 160 161
-52.989602 -5.808482 241.317081 94 89 40
-4.373666 82.699329 104.958117 94 99 90
-5.377451 68.053418 131.007063 80 86 93
-13.080023 51.771766 156.874943 60 73 87
-4.375538 64.672995 137.854588 84 88 99
-4.356970 83.947355 102.982283 164 165 163
-5.081301 70.977169 126.196074 159 163 164
-5.746964 68.105644 131.110394 163 169 176
-4.655356 64.708304 137.815571 88 91 95
-61.696941 -5.414391 237.521791 31 26 23
-61.696941 -5.414391 237.521791 31 26 23
-5.847882 68.542051 130.396485 154 161 170
-5.966829 65.210253 136.393225 100 107 122
-5.520833 69.139713 129.490519 162 168 173
-4.209758 83.253610 104.517758 160 162 162
-5.522479 69.332701 129.200077 164 171 180
-5.403470 70.300865 127.502072 160 167 176
-21.963504 38.614613 177.068031 101 92 78
-7.011414 66.582078 133.546638 137 146 155
-6.004037 64.895636 137.139273 113 117 128
-37.621936 -10.365473 258.715844 255 255 255
-4.985918 73.774928 121.543443 153 159 166
-5.149370 63.513535 140.142870 127 129 129
-22.195195 37.470767 179.288292 218 202 135
-4.426190 79.939598 110.703623 126 128 128
-63.260305 -5.600779 238.097191 104 96 56
-21.777414 38.435388 177.979326 48 34 5
-21.777414 38.435388 177.979326 48 34 5
-6.837191 67.971373 131.493962 147 153 160
-21.584219 38.845438 177.491653 183 175 116
-68.635410 -5.993392 236.834741 116 105 78
-6.529499 65.733463 135.963607 94 96 97
-22.810121 37.095907 180.345690 36 32 27
-4.376253 83.943421 103.866005 147 149 150
-5.721093 71.696693 125.495398 135 143 156
-6.444126 65.540463 136.389220 23 23 29
-7.388499 68.536454 130.628407 41 47 60
-7.388499 68.536454 130.628407 41 47 60
-59.273815 -4.954943 239.806366 139 127 99
-59.273815 -4.954943 239.806366 139 127 99
-7.762086 67.837054 131.783283 41 48 68
-4.614725 73.899484 122.240710 194 193 195
-57.472390 -4.877164 240.689611 62 56 27
-22.614008 38.000989 179.220760 54 50 32
-5.070062 73.539966 122.913957 191 192 196
-4.404346 64.527601 139.723539 70 73 81
-7.697908 67.641461 132.496226 167 176 186
-7.697908 67.641461 132.496226 167 176 186
-67.911917 -5.675224 237.779331 99 90 56
-67.911917 -5.675224 237.779331 99 90 56
-4.035831 65.306002 138.616478 142 147 150
-23.220949 36.719033 181.736839 82 73 29
-6.343731 65.821111 136.612582 90 99 112
-23.557280 35.615677 183.765209 38 30 23
-23.681149 35.928816 183.192682 85 84 63
-4.191201 80.130708 111.605716 140 143 147
-7.651139 69.796735 128.911757 159 167 174
-7.778887 68.121356 131.937981 23 29 40
-4.616608 74.947429 120.959032 171 171 171
-59.148085 -5.998834 243.178654 193 179 127
-7.577948 66.259676 135.459852 28 29 33
-7.628709 68.049079 132.167006 108 113 128
-6.299107 66.080183 136.579287 49 56 65
-4.137111 81.124270 110.043120 166 165 169
-3.527598 85.132611 103.099930 35 41 52
-62.678558 -4.763556 239.979291 60 50 32
-24.312763 34.486806 186.245966 150 139 81
-24.312763 34.486806 186.245966 150 139 81
-3.995148 65.678215 138.810396 161 165 170
-63.569087 -4.239737 238.906813 142 131 79
-23.748958 36.237955 183.626342 62 51 31
-4.147515 65.404028 139.404404 133 141 148
-7.805216 66.456139 135.754347 109 113 118
-4.294295 77.567267 117.051399 84 89 92
-7.817876 68.090969 132.890713 76 79 83
-7.003077 72.220057 125.768054 69 75 86
-7.003077 72.220057 125.768054 69 75 86
-62.533265 -5.335050 242.307544 186 173 127
-6.874669 73.348641 123.813176 134 138 149
-6.854434 65.931261 137.537205 15 15 21
-4.458350 66.388404 137.881458 23 26 30
-22.918610 39.704016 178.329062 27 28 19
-8.797811 67.332017 134.272850 138 143 146
-6.630433 73.271537 124.402499 131 139 146
-7.620081 69.101912 131.644106 170 183 191
-3.960411 64.278072 142.320597 62 57 8
-3.960411 64.278072 142.320597 62 57 8
-24.576767 35.324994 186.035335 255 255 255
-3.680762 82.887185 108.173597 42 47 68
-6.945078 73.601782 123.802686 70 79 92
-23.897271 35.816607 185.571170 255 255 255
-6.694325 73.898244 123.409641 76 85 95
-5.820213 76.238561 119.576824 156 161 170
-7.558991 67.411858 135.061777 140 144 139
-63.381141 1.297317 230.900884 53 44 30
-7.692423 69.432360 131.479347 169 173 174
-7.692423 69.432360 131.479347 169 173 174
-3.008362 85.291916 104.441977 37 44 53
-14.582218 53.204477 158.378375 255 255 255
-6.407759 66.312337 138.038862 111 114 118
-3.172749 82.022297 110.505271 156 161 164
-7.369031 67.527473 135.551751 100 100 84
-7.582620 70.243567 130.431211 109 112 116
-4.798484 64.523911 142.402661 44 44 8
-7.575464 70.171076 130.653310 180 181 185
-3.961032 66.002679 140.105963 30 33 37
-3.794159 66.337734 139.566219 25 28 32
-2.865302 86.232573 103.153980 153 157 162
-3.091110 85.718626 104.032958 64 71 74
-69.376814 -2.771726 237.141109 26 19 16
-3.241820 83.087564 108.894575 42 51 64
-2.626246 85.071552 105.580473 157 159 159
-7.366353 66.459006 137.943244 50 54 55
-7.366353 66.459006 137.943244 50 54 55
-28.889182 36.635399 183.336949 255 255 249
-3.540610 81.335515 112.201238 164 165 169
-66.608065 -0.040907 234.208894 134 126 97
-66.740727 0.150657 233.882284 60 46 27
-4.573170 66.412067 139.740920 163 162 164
-2.971287 86.408812 103.314853 162 160 159
-2.613724 85.504138 105.206168 104 107 111
-6.366451 66.539675 138.793528 28 28 22
-6.737749 76.727903 119.723094 53 57 68
-3.279749 81.687272 112.204206 119 119 119
-6.108233 76.138872 121.312058 163 162 166
-4.821036 66.497785 139.950705 163 164 168
-2.718241 85.708743 105.218148 94 99 100
-3.087864 82.333839 111.446238 102 104 104
-5.896842 66.541904 139.714026 42 43 34
-7.150355 77.060097 119.526422 38 45 54
-7.191568 77.251554 119.200957 63 71 78
-76.503128 -2.614909 236.487222 255 255 255
-2.551084 83.792168 109.262705 150 160 177
-71.586829 -0.565054 235.551810 123 107 40
-6.854508 76.932889 120.472860 35 49 67
-6.970733 77.981192 118.460393 50 60 84
-2.723562 82.916266 111.174107 127 132 131
-2.718253 83.397537 110.434580 128 133 118
-2.718253 83.397537 110.434580 128 133 118
-2.880998 83.258390 110.717404 77 83 72
-6.260102 75.625032 123.661828 47 50 25
-6.260102 75.625032 123.661828 47 50 25
-7.005254 77.058041 120.636892 171 171 171
-4.068248 62.982941 148.657739 102 110 103
-7.343783 74.462396 125.653589 170 170 154
-1.836806 86.039442 106.480145 166 167 163
-5.843444 65.024173 144.291198 164 148 81
-1.184006 87.148696 104.808259 116 118 89
-2.202264 84.776503 108.802545 155 160 161
-2.177235 85.193366 108.139312 96 99 74
-2.484643 83.953863 110.422814 35 39 34
-2.484643 83.953863 110.422814 35 39 34
-6.419677 66.169173 142.427754 140 137 82
-3.391908 63.925570 149.106789 105 112 115
-1.954094 85.412163 109.145713 178 180 144
-1.612183 87.551910 105.270636 160 161 145
-1.448137 87.616110 105.252898 160 161 145
-1.545815 87.631154 105.513906 157 160 135
-1.715454 86.109048 108.575535 175 178 146
-1.804953 86.195695 108.817101 145 148 132
-1.054644 89.258760 104.585207 96 105 92
-10.480117 82.057989 115.667057 171 171 171
-1.822509 87.090504 109.700656 179 184 169
-1.211017 89.647180 105.311978 25 29 24
0.594238 91.201407 103.197205 149 162 160
-1.003948 90.097773 104.894269 185 174 136
-3.418196 65.524173 152.305365 68 99 108
-0.941444 86.925900 112.619185 171 171 171
-2.471477 90.202755 105.985010 180 174 137
-2.959782 90.378094 105.744398 112 116 80
-3.048263 89.667964 107.564843 107 114 99
-3.327603 90.699309 105.697632 149 153 124
-4.943723 89.029139 108.557141 176 180 174
-3.838815 90.097469 107.155359 166 170 145
-4.296286 90.861446 105.736792 114 124 112
-7.423429 89.918953 107.609451 25 44 49
-8.030358 89.150572 109.667277 78 99 91
-9.950159 89.463228 108.249378 171 182 150
-8.568180 89.324272 109.475720 205 210 195
-7.897253 91.528672 106.604564 183 196 194
-6.993712 92.274833 105.798638 153 167 161
-24.445620 18.774989 80.425376 43 39 45
-4.996270 33.255100 83.118141 125 121 120
-5.621851 34.846613 81.011003 159 158 162
-5.621851 34.846613 81.011003 159 158 162
-5.589841 34.368432 81.596339 162 161 163
-6.184899 34.991243 81.007951 50 49 51
-7.268106 34.603879 80.626976 134 149 181
-25.222555 18.683182 81.375605 53 50 45
9.596360 46.192318 83.745426 31 27 26
-5.610068 36.613441 80.492437 63 64 74
-6.533822 36.196470 81.623167 65 61 67
8.678714 48.190978 82.471389 81 68 52
8.787990 47.089839 84.378725 113 113 119
30.614725 66.125369 85.396802 30 29 25
30.240518 66.367453 85.350341 89 93 98
20.469591 58.295113 85.579795 28 26 16
38.396862 72.736025 85.612309 110 109 111
38.396862 72.736025 85.612309 110 109 111
37.897730 72.765124 85.582554 38 38 38
19.300015 58.311188 85.508198 98 84 62
20.898692 62.315637 84.502947 51 59 82
44.896314 79.353958 86.303055 110 109 111
20.707908 62.388009 84.471756 126 136 166
44.457433 79.396588 86.279595 38 38 38
37.250295 74.063528 86.181802 115 101 83
44.549993 80.354226 86.893916 131 129 129
44.549993 80.354226 86.893916 131 129 129
44.459283 80.529916 86.768794 89 93 98
50.420737 84.973037 86.889488 110 109 111
41.079092 80.092460 90.626043 135 121 122
41.684479 84.158039 87.447065 165 168 172
41.917786 83.366424 88.726056 119 122 126
49.329156 67.707717 113.766932 125 125 125
49.329156 67.707717 113.766932 125 125 125
41.857734 84.180331 88.007140 164 164 164
41.974366 83.697176 88.689160 111 115 116
41.838211 84.088778 88.344806 105 107 108
203.080297 216.854429 60.087699 96 108 120
41.894174 84.550071 88.472772 109 113 114
48.734298 68.804759 113.410401 136 132 127
206.180072 218.968201 59.342796 96 108 120
42.473727 83.967614 90.018469 174 175 173
