ply
        format ascii 1.0
        element vertex 64728
        property float x
        property float y
        property float z
        property uchar blue
        property uchar green
        property uchar red
        end_header
-334.585285 -191.916203 2172.437477 42 33 30
-324.216318 448.128557 1869.903564 82 99 85
-316.530252 -292.601728 2182.080841 33 28 29
-303.636241 203.222084 1935.172462 13 10 2
-303.206873 214.223599 1927.895355 20 19 9
-305.670500 192.457259 1938.193130 11 11 5
-331.007266 -413.614655 2250.601006 112 105 66
-330.944037 -413.940048 2250.646591 112 105 66
-308.085775 617.002201 1754.978561 132 128 45
-346.134400 521.320534 1869.293022 84 93 97
-346.134400 521.320534 1869.293022 84 93 97
-333.954239 -417.348480 2251.809311 255 255 238
-333.518052 -406.575108 2245.731163 140 141 101
-338.056564 -23.178740 2087.620544 115 113 102
-330.276489 446.916056 1868.076706 69 85 74
-335.524368 171.879029 1996.648216 147 149 119
-332.573986 444.379950 1867.683029 46 81 77
-355.710506 -89.510709 2142.108345 86 77 68
-341.286898 33.495668 2059.899139 68 66 32
-310.916305 201.344848 1928.932571 20 18 8
-354.003191 -121.196806 2150.194168 108 98 91
-353.075385 -124.228632 2148.978233 119 110 107
-344.564629 -15.899549 2081.424713 69 70 61
-348.856497 -181.244314 2160.527420 65 55 45
-333.956814 -285.880518 2176.662254 169 168 130
-326.885056 560.733986 1799.410439 107 110 55
-346.952176 -194.864988 2160.721016 143 139 128
-336.233425 -358.331323 2209.523201 24 14 14
-348.594594 -188.452280 2159.560585 61 50 46
-297.396922 881.879997 1602.978325 161 165 159
-347.535658 57.759714 2050.769043 45 40 31
-330.259395 -302.353692 2170.226288 178 171 121
-330.259395 -302.353692 2170.226288 178 171 121
-344.565368 -408.908081 2242.494011 96 99 60
-316.929889 195.900190 1930.933762 127 121 78
-349.255371 40.329275 2058.192825 38 35 27
-667.149591 995.908737 2228.347206 23 17 18
-351.133180 137.589300 2019.448471 146 143 115
-364.479065 -89.107859 2140.777206 173 179 162
-307.636881 780.818987 1656.748962 141 139 129
-336.741257 286.259842 1920.708847 54 50 45
-355.600739 45.013365 2058.681870 187 183 125
-342.988038 436.744165 1868.831825 104 142 146
-370.304632 -81.832516 2139.533997 101 103 74
-366.507173 -112.699175 2145.028687 79 71 64
-338.243580 282.389760 1923.890305 56 50 43
-357.114148 57.624394 2051.247787 40 30 23
-349.535656 -407.304668 2230.333519 30 35 34
-349.535656 -407.304668 2230.333519 30 35 34
-371.113801 -102.229881 2143.444633 182 181 137
-340.781856 273.067522 1927.485657 61 55 42
-347.905898 -272.594595 2168.574142 93 86 59
-357.052803 47.355667 2051.638603 44 35 32
-354.208279 117.314160 2014.422226 32 28 23
-354.208040 99.793351 2021.613693 142 138 119
-343.011951 274.198246 1926.543045 146 144 110
-348.949337 -276.912498 2166.720200 68 61 36
-343.913579 270.131564 1928.807449 154 156 120
-362.798357 -202.999449 2157.980156 50 41 28
-347.165442 262.198830 1932.203484 146 138 109
-356.916380 82.507825 2023.155785 34 29 20
-357.564759 78.748775 2025.209999 48 39 26
-313.200998 819.227028 1633.353424 142 143 141
-342.426252 -342.193198 2168.935776 22 20 20
-336.311340 597.445583 1767.509651 126 123 48
-374.097252 -154.122639 2149.934769 159 160 120
-328.791451 673.808479 1720.789719 142 140 82
-330.329061 668.510437 1725.232697 138 134 85
-361.476207 -32.237133 2073.243141 133 127 84
-357.841277 119.936752 2002.581787 182 172 125
-350.071549 -380.718112 2191.735840 22 22 22
-376.524878 -148.120272 2147.835159 102 90 78
-362.452078 -42.102396 2076.530647 155 148 105
-362.452078 -42.102396 2076.530647 155 148 105
-360.284448 56.944370 2030.488205 53 51 33
-335.743403 637.885666 1744.248581 198 191 141
-305.085063 102.521062 1903.047752 42 40 29
-337.686682 620.594406 1754.818535 194 185 142
-337.503290 625.049353 1752.566719 193 188 143
-341.357279 589.553404 1774.184799 178 172 89
-360.741854 67.695707 2024.439812 149 146 101
-333.442569 670.459986 1725.263596 187 184 176
-348.047423 313.495207 1898.970032 158 157 96
-354.744005 257.943964 1933.881569 34 34 28
-343.853498 573.099709 1783.639717 120 117 32
-357.207727 557.703161 1815.302467 145 133 69
-304.841805 97.930121 1899.120140 121 115 110
-357.624960 561.345434 1813.602829 149 136 68
-373.855543 -201.554108 2154.651451 156 147 114
-339.855623 625.560093 1752.345657 115 118 26
-361.439753 125.226092 1996.930313 177 175 117
-324.134302 797.515440 1649.978256 181 179 178
-324.134302 797.515440 1649.978256 181 179 178
-367.386913 -40.018222 2073.290443 101 86 67
-354.037380 296.773219 1909.526634 22 20 12
-365.481257 32.584730 2038.408470 131 127 103
-375.007868 -145.424962 2128.444862 30 24 17
-363.655543 105.583906 2004.784393 90 84 65
-362.769222 113.934946 1999.262810 86 84 50
-341.969848 626.043367 1751.807594 139 139 55
-369.437885 -56.694186 2080.784798 112 113 93
-353.086638 304.740238 1902.593994 154 154 108
-358.104277 271.597409 1925.059509 85 84 70
-356.615281 281.458163 1917.594147 47 44 23
-361.682105 547.354317 1819.874001 169 166 75
-342.497587 631.161737 1748.536873 121 120 46
-379.538989 -198.104024 2153.212547 63 54 34
-343.942976 627.043581 1751.877022 120 124 48
-365.646601 86.592495 2011.382484 63 53 35
-320.157075 863.325691 1610.001183 122 123 121
-334.141612 723.868942 1693.087578 149 147 146
-376.515126 -122.217536 2114.376259 30 21 11
-378.007102 -155.640900 2130.510521 141 135 94
-354.966354 552.871418 1800.951767 30 36 17
-354.966354 552.871418 1800.951767 30 36 17
-372.643280 -57.302403 2080.102348 30 28 20
-366.873288 -337.992430 2180.305290 128 117 85
-368.581414 46.378902 2029.422760 96 97 88
-357.580948 304.175258 1904.576302 166 159 96
-364.404821 439.562416 1863.683891 118 142 142
-380.398226 -202.727437 2150.918770 210 207 132
-367.018294 -344.554543 2181.176186 74 64 30
-378.055024 -145.994592 2123.381424 44 30 18
-360.766649 270.776820 1921.991158 128 131 109
-320.405507 881.696415 1598.768711 161 162 160
-359.201741 306.732202 1902.779961 38 29 2
-368.216801 112.218952 1997.914696 130 131 97
-378.923345 -117.231107 2109.280014 148 137 93
-369.202852 130.043077 1989.258003 153 146 121
-371.842051 103.216088 2004.705048 48 42 31
-379.568553 -239.318562 2154.988098 53 51 41
-368.757534 560.238600 1816.447639 43 42 21
-381.419134 -191.163683 2138.505936 49 41 34
-380.383277 -229.105783 2151.298332 26 20 15
-351.779246 613.205004 1761.017990 171 170 160
-364.241552 277.591562 1918.099022 153 160 117
-365.404367 271.193123 1922.823906 75 75 59
-383.911014 -138.957286 2121.322250 73 65 48
-370.777583 126.648641 1990.351486 130 126 98
-382.252336 -89.824760 2098.242569 125 115 85
-362.320805 576.997232 1795.063972 130 144 156
-356.053686 583.097553 1780.327606 142 142 128
-367.330384 259.681916 1929.735947 51 50 46
-365.502429 275.592065 1919.474030 26 28 9
-365.502429 275.592065 1919.474030 26 28 9
-389.653039 511.354065 1873.513031 20 26 39
-357.417798 579.043102 1782.313347 123 127 121
-382.375193 -31.263876 2070.056725 35 27 20
-381.326056 21.015957 2046.316528 156 143 99
-375.490379 -357.345104 2183.373260 158 144 125
-329.179621 880.421257 1605.737114 108 111 119
-354.173684 630.986071 1752.936745 97 99 100
-354.388428 621.911240 1756.685066 97 98 102
-384.437370 -182.358062 2131.085396 36 38 26
-384.223843 -38.003287 2073.441696 61 52 42
-356.420279 620.241022 1760.322762 108 108 114
-385.671139 -168.327188 2127.123070 184 169 107
-366.686797 296.168113 1906.713104 20 19 9
-386.464095 -172.606945 2129.055977 191 185 140
-386.284256 -65.595353 2086.710358 177 162 116
-384.596157 -117.452097 2102.963448 157 139 80
-357.335687 634.743404 1753.155136 168 172 177
-380.400968 109.493351 2002.664948 178 167 105
-386.298490 -12.462962 2061.802673 168 155 109
-384.279513 47.939998 2034.201622 159 145 103
-381.901550 -257.855821 2148.245811 190 198 128
-387.369704 -4.707404 2060.027885 174 160 111
-386.411786 -89.424872 2090.866470 187 175 117
-364.661145 -346.084690 2147.885513 255 255 255
-388.648462 -103.407919 2100.391197 158 140 81
-354.603839 667.895651 1732.744980 157 164 173
-367.787290 -421.125269 2177.978897 255 255 226
-387.530947 -173.519599 2119.421768 65 62 18
-387.530947 -173.519599 2119.421768 65 62 18
-374.716735 268.210936 1923.045349 179 171 111
-385.596848 -222.695780 2134.334183 21 16 13
-375.694728 439.628267 1857.556343 44 70 94
-368.108892 -433.374643 2179.807091 51 26 40
-363.498998 592.376280 1773.822594 19 26 35
-352.031040 735.708809 1695.494270 195 195 195
-410.168791 -320.723963 2218.375969 186 177 114
-384.723878 -220.342636 2127.830696 35 26 13
-337.841916 889.832020 1606.473923 110 113 117
-352.605391 737.944460 1693.744087 190 190 190
-388.002253 -176.679659 2115.942955 209 198 138
-351.323628 750.123024 1685.650253 187 186 188
-367.707133 587.986279 1780.347061 99 115 122
-368.012357 588.435507 1780.628586 99 115 122
-342.491531 884.208679 1616.130638 165 171 166
-389.332914 114.683294 2004.661942 140 123 67
-380.026889 558.687925 1813.935471 62 63 31
-365.147638 597.317266 1768.560600 51 57 64
-378.704882 272.608471 1918.796539 42 35 26
-378.704882 272.608471 1918.796539 42 35 26
-346.878910 873.930359 1625.508881 156 158 158
-386.061549 -129.989421 2085.967445 122 101 50
-389.469767 -208.050442 2121.631050 27 23 22
-381.722021 272.561097 1918.832016 163 151 103
-390.657187 -89.886963 2073.938370 72 61 39
-390.657187 -89.886963 2073.938370 72 61 39
-393.838716 -144.981289 2099.876404 194 177 114
-371.998000 591.647387 1776.770592 100 106 113
-371.998000 591.647387 1776.770592 100 106 113
-380.762815 288.047218 1908.455467 55 47 48
-389.442253 -218.801188 2117.180443 29 20 11
-381.706524 282.162547 1911.875725 49 46 42
-352.528238 871.992683 1630.431557 162 166 160
-380.544281 298.191857 1902.032852 59 55 36
-362.941217 629.821825 1741.214180 126 138 156
-389.147520 130.718219 1981.599808 13 11 11
-393.273973 120.353603 1992.833138 201 188 132
-355.403543 828.857327 1650.238609 174 176 176
-379.202485 320.735097 1888.995361 93 86 36
-391.957307 -225.966096 2119.723892 20 18 8
-362.050915 735.907030 1697.845459 109 115 122
-386.978793 553.374100 1815.044212 50 48 14
-386.978793 553.374100 1815.044212 50 48 14
-354.534292 850.482368 1638.369942 37 41 46
-423.979712 -318.995309 2215.244675 109 97 61
-387.525511 568.470955 1806.506348 46 45 47
-359.192538 850.768948 1643.972015 157 160 138
-371.692848 603.742838 1761.056519 17 16 20
-358.531117 841.365528 1645.882988 38 43 34
-395.163059 -81.464314 2063.335228 157 140 91
-393.739390 -61.427796 2052.312469 128 116 76
-376.944208 377.205992 1854.852295 124 125 109
-382.037210 325.896096 1883.760262 73 62 18
-366.951036 630.469847 1739.949036 26 29 44
-377.569461 368.620276 1858.463097 117 111 88
-360.144567 836.148167 1649.198532 58 61 59
-389.301133 570.706177 1805.404091 55 58 62
-373.953390 601.789284 1762.357903 87 93 100
-401.249504 527.377415 1844.109535 153 163 150
-361.492491 863.993645 1639.402962 106 111 96
-363.834310 698.934507 1705.289650 149 153 164
-361.754370 725.911951 1691.078186 70 76 87
-367.510867 618.227243 1742.451668 121 124 128
-380.024672 363.597536 1861.922455 160 159 108
-390.217710 555.336809 1811.127090 53 54 20
-367.720127 637.481403 1735.357475 33 40 49
-362.544036 700.276423 1701.609612 60 69 79
-389.947963 580.466223 1800.721359 161 159 158
-391.150498 548.641777 1814.880180 180 168 90
-379.151607 590.565825 1775.286293 11 17 22
-379.151607 590.565825 1775.286293 11 17 22
-390.640259 271.701121 1915.891838 80 85 70
-372.195172 611.942816 1752.764130 30 36 43
-364.218736 722.206306 1695.825195 175 178 183
-386.489105 315.368199 1890.313339 180 175 106
-395.257330 -206.825328 2100.561523 47 40 21
-395.257330 -206.825328 2100.561523 47 40 21
-361.742783 738.450146 1683.826065 156 162 173
-379.902124 587.452888 1775.490189 102 111 114
-407.754326 517.405462 1855.027962 26 32 37
-396.767783 -197.399139 2095.659637 193 180 104
-366.889691 704.817724 1703.238678 155 159 164
-395.945573 -209.242940 2097.484589 148 144 93
-361.536145 747.594643 1676.312637 176 178 179
-385.552311 339.708400 1874.053764 167 159 99
-365.401125 859.432793 1641.960526 178 180 158
-433.243847 -318.180537 2208.926201 93 83 43
-402.505732 -243.684936 2119.943428 211 205 134
-391.649270 293.352938 1900.355911 50 51 49
-393.452287 20.362239 2003.713989 50 39 17
-366.108847 857.745361 1642.297935 57 62 47
-401.473808 -233.416390 2111.801147 83 71 35
-401.473808 -233.416390 2111.801147 83 71 35
-395.248246 4.683109 2010.870361 152 138 90
-397.600746 64.429808 1993.381119 72 64 51
-393.242097 42.092189 1991.444397 51 43 30
-395.647717 13.998157 2005.570221 135 124 67
-366.235042 880.596638 1630.931282 40 47 42
-366.235042 880.596638 1630.931282 40 47 42
-402.843761 -54.362041 2043.912697 212 196 149
-390.309000 582.701063 1786.986160 115 120 118
-399.206066 557.027102 1813.488960 45 50 29
-386.725140 363.901305 1858.245659 107 111 105
-386.120391 382.836914 1849.261284 85 81 80
-405.070114 -205.476928 2099.458313 206 202 149
-367.161465 737.006140 1680.422592 154 167 175
-369.765067 875.932312 1635.217285 140 149 139
-369.472456 878.680420 1633.479881 132 145 131
-403.041124 -137.444663 2067.927170 217 209 149
-400.899076 -91.870010 2045.600510 181 170 113
-378.729963 615.240049 1745.213509 168 166 148
-404.035187 -115.931904 2058.085823 172 159 97
-387.154412 592.444944 1768.462181 134 138 143
-375.188041 844.159985 1653.334808 201 198 177
-386.170411 602.929020 1760.084915 101 103 73
-407.302809 -261.334157 2109.956360 173 183 123
-407.302809 -261.334157 2109.956360 173 183 123
-418.514252 -413.028812 2186.178780 134 127 84
-376.994777 675.237703 1713.937569 126 122 71
-376.994777 675.237703 1713.937569 126 122 71
-420.428419 -424.679708 2193.904686 209 196 134
-405.208683 555.555773 1813.481331 146 149 100
-394.477224 97.647130 1955.050468 91 98 77
-386.695528 608.581829 1756.493568 110 112 93
-370.721483 906.828213 1617.943382 45 46 20
-403.067827 -51.605612 2023.928642 187 181 114
-404.771805 -151.502395 2062.479019 66 55 41
-404.771805 -151.502395 2062.479019 66 55 41
-389.569378 593.674517 1765.658379 51 53 31
-389.569378 593.674517 1765.658379 51 53 31
-406.280994 523.047924 1824.193382 68 70 34
-419.861412 -444.417620 2194.717026 145 125 47
-393.160772 417.536974 1832.521439 102 136 160
-379.478455 673.589563 1714.063644 178 172 167
-423.070097 -415.225506 2186.881828 66 42 20
-407.666922 -276.511765 2106.293869 60 47 31
-382.080865 607.748556 1741.644478 66 71 69
-401.956177 -160.650861 2053.260612 104 95 68
-408.928156 -279.533982 2109.101295 113 109 31
-403.934956 -166.696548 2057.856750 44 33 19
-403.707266 65.450639 1975.356674 99 97 89
-403.603029 58.237934 1977.687073 166 157 113
-422.843504 -413.090611 2182.526970 82 72 54
-423.245239 -428.936243 2188.425255 132 120 80
-400.984812 209.033513 1916.724396 62 72 79
-378.201389 600.865793 1732.286644 160 162 162
-385.532784 95.535928 1923.502922 15 13 13
-377.111840 620.120811 1722.326660 196 199 207
-382.713294 601.225185 1740.039635 188 191 195
-376.139235 623.164749 1718.989372 186 189 193
-400.974464 224.326110 1909.025192 176 186 156
-408.361626 -283.597326 2101.478577 226 220 197
-406.099510 -165.525353 2054.232979 169 160 87
-373.003316 740.612984 1670.085335 185 186 182
-375.887656 733.301497 1678.468132 197 198 196
-424.410582 -415.176773 2178.419876 65 58 43
-406.731749 65.880102 1974.079704 168 160 120
-406.731749 65.880102 1974.079704 168 160 120
-376.518989 896.953201 1621.789932 174 167 134
-381.786299 698.072529 1701.416016 172 174 145
-371.234417 751.482439 1661.299896 66 70 58
-370.735359 765.747738 1654.926300 145 147 147
-376.643610 900.532150 1619.169807 43 49 44
-405.806828 109.988451 1952.800941 176 178 148
-411.252546 -47.354224 2017.831993 47 35 29
-376.329279 730.798340 1676.361084 134 132 114
-403.625870 207.044029 1912.599373 179 174 111
-383.099151 594.280481 1736.433220 49 61 67
-413.903666 554.836082 1811.004448 158 154 119
-374.502110 567.633963 1726.327515 142 144 145
-412.719727 -17.317289 2005.873299 153 147 100
-376.039791 731.585169 1672.090340 77 79 59
-427.054644 -449.666548 2183.112526 255 255 245
-413.468599 556.825352 1807.497978 52 52 38
-382.086968 599.239492 1728.853607 161 165 166
-381.116891 608.388901 1723.527718 170 170 176
-381.116891 608.388901 1723.527718 170 170 176
-404.501820 229.019380 1900.403404 163 166 117
-377.076626 733.923483 1670.633698 181 182 172
-379.085398 726.801729 1676.571655 77 76 62
-409.564638 568.204021 1792.043304 89 89 49
-407.930183 217.775273 1907.888031 18 18 0
-408.469915 213.938117 1910.096550 67 68 36
-405.516100 231.458879 1897.418594 28 27 13
-416.574097 -29.672405 2008.508301 76 60 53
-376.675534 666.067123 1688.964081 178 177 173
-409.869051 212.739301 1911.094284 218 211 148
-401.462889 284.240460 1869.436455 110 110 92
-401.462889 284.240460 1869.436455 110 110 92
-417.530155 -26.266485 2004.692650 200 183 134
-381.683016 629.899359 1708.210564 127 128 118
-413.317728 57.420135 1966.259575 196 192 139
-414.601326 523.376083 1810.454941 38 41 25
-368.991828 327.661490 1783.177376 20 28 27
-401.525402 296.375275 1859.748650 19 15 14
-382.857466 893.861008 1617.033195 52 53 33
-375.624132 725.204706 1657.896614 149 157 164
-410.519409 277.082443 1878.404045 20 11 0
-370.954299 327.951431 1780.259323 184 186 150
-418.438435 44.253203 1971.311378 137 120 71
-420.236206 8.035805 1986.689949 70 52 29
-383.763170 896.832848 1613.542557 89 91 61
-420.966721 11.805085 1984.274864 76 55 23
-384.174919 891.865444 1614.560127 26 25 15
-417.459202 118.255377 1938.062668 207 207 161
-403.967476 569.882393 1760.066223 170 171 169
-410.597992 299.131513 1863.498688 31 32 23
-390.569353 306.034231 1819.750023 123 114 70
-414.415073 251.281428 1886.386299 168 160 130
-414.415073 251.281428 1886.386299 168 160 130
-378.281021 740.499830 1649.451828 118 121 129
-431.627369 523.349237 1828.738785 32 41 45
-378.722692 748.959589 1644.990540 131 132 136
-390.634298 315.686655 1810.660934 101 104 89
-388.757968 843.799877 1632.100677 102 108 107
-420.464373 -88.393855 2004.203224 24 19 20
-413.629484 296.201158 1863.394356 21 19 19
-386.731148 899.105644 1609.265518 14 16 10
-405.437756 -93.526673 1974.487114 255 255 255
-387.146759 899.618816 1609.716225 14 16 10
-374.586725 326.885939 1768.711472 49 46 31
-360.112333 506.723738 1680.037880 171 174 105
-417.990875 260.125566 1879.424858 127 130 104
-388.747859 830.952930 1632.313919 147 151 152
-418.124151 262.770605 1878.174019 57 47 30
-399.515080 557.605934 1742.547035 96 104 39
-439.537811 523.278046 1836.568260 88 94 83
-416.564131 305.555105 1860.414505 163 156 137
-416.730452 298.442197 1861.834717 167 160 133
-441.260672 515.990591 1840.699387 86 115 130
-375.932097 316.680598 1770.902061 91 82 49
-422.556639 240.842223 1888.895607 36 38 16
-392.499447 875.654984 1620.598412 167 171 159
-420.787716 273.871112 1873.650360 190 187 132
-426.463223 62.396067 1953.361893 108 94 66
-359.621048 501.127338 1673.081017 157 153 88
-352.796459 497.273731 1659.546089 118 123 54
-390.318418 898.965740 1607.014656 135 140 101
-438.546038 517.220974 1828.699493 113 148 168
-428.352785 44.479030 1959.963799 204 189 133
-422.682333 278.851557 1871.193123 187 193 136
-426.836109 238.602233 1892.553902 57 46 24
-428.271484 62.558734 1951.328850 214 198 151
-423.778677 275.335908 1873.103333 34 30 19
-430.023336 -151.200652 2022.268867 168 157 100
-350.712776 492.421341 1650.994492 116 116 46
-420.564651 312.935781 1851.038170 207 196 139
-426.210213 268.924451 1874.347687 95 69 23
-391.728497 899.199200 1602.277756 111 118 115
-392.082214 885.674477 1607.109451 154 162 122
-430.013847 81.500322 1938.216019 201 196 147
-421.113110 311.933136 1845.428085 195 191 140
-335.939908 495.358038 1611.011505 139 136 75
-392.955899 897.009659 1601.488113 143 147 112
-396.714377 873.326492 1616.567612 188 192 187
-397.025228 876.380920 1615.726471 93 110 97
-432.950211 228.858614 1893.987083 146 127 76
-427.534056 263.478899 1870.541382 212 197 148
-427.534056 263.478899 1870.541382 212 197 148
-427.962828 286.733603 1863.256836 209 213 177
-429.305935 275.612450 1869.411659 164 153 95
-392.359376 811.463356 1623.821068 136 140 141
-425.703478 296.320868 1853.500175 26 24 14
-422.551250 235.417533 1866.077995 43 37 32
-392.330980 807.780361 1623.920441 183 183 183
-429.066849 265.837669 1869.445801 227 206 155
-434.386492 -138.860250 2003.194046 100 89 37
-443.565035 -161.096835 2027.939987 202 198 140
-429.741144 290.376377 1858.440018 37 44 23
-423.587036 296.423411 1843.109131 69 57 33
-423.587036 296.423411 1843.109131 69 57 33
-429.395390 283.655095 1858.119202 66 63 49
-426.610470 239.788222 1864.271355 112 105 85
-328.561378 479.622889 1584.704971 126 129 60
-328.561378 479.622889 1584.704971 126 129 60
-429.277086 279.998660 1855.903244 54 46 9
-430.095243 260.732031 1863.230515 118 109 66
-444.030428 -186.350894 2030.089760 148 140 87
-423.929739 302.671981 1836.694717 247 247 199
-423.010063 304.831815 1833.469391 255 255 244
-428.215170 234.483099 1865.860367 255 253 248
-424.328518 294.023681 1839.423370 255 255 255
-416.228008 342.753625 1806.024933 255 255 255
-429.317045 238.602090 1863.861847 55 49 42
-333.745718 435.267305 1603.730965 80 79 18
-396.108198 893.441010 1593.719196 101 118 109
-398.157263 829.666996 1617.170715 84 107 109
-429.104185 291.867638 1845.699883 101 88 66
-423.925447 -113.089299 1958.783150 141 130 73
-427.872133 241.551566 1858.274651 68 57 43
-427.690983 291.615081 1842.535400 81 88 61
-390.633464 464.370728 1712.355042 107 115 75
-435.752106 -116.141152 1981.282043 97 89 49
-399.659014 877.203846 1602.379036 126 139 131
-411.703730 -116.882336 1929.365540 89 85 66
-444.141197 -158.722734 2007.893944 130 122 63
-434.856987 279.735613 1852.543068 253 254 255
-318.171906 465.182781 1551.757526 209 203 138
-427.269650 -112.562644 1951.778984 71 61 21
-322.066259 464.230680 1557.996559 113 111 47
-319.572353 458.741808 1549.492645 102 102 32
-444.469595 -125.008535 1983.063889 86 81 36
-394.367194 455.101156 1705.322456 83 88 67
-442.350721 18.439209 1933.143044 255 255 255
-401.455450 874.973106 1593.189144 38 52 58
-411.976624 59.269738 1849.856377 255 255 255
-310.240293 570.699310 1485.439205 178 173 158
-443.160009 -112.894928 1962.254906 61 55 20
-433.657789 -107.288229 1938.056374 32 25 16
-433.657789 -107.288229 1938.056374 32 25 16
-402.437258 874.913788 1586.037827 78 89 79
-407.395840 855.475998 1600.279045 84 98 97
-387.653565 440.097809 1678.441429 88 91 59
-403.508425 892.277813 1580.375099 72 99 113
-320.335460 437.843800 1535.696602 168 168 114
-325.261974 428.285408 1548.048592 174 172 102
-449.321222 -118.757451 1966.700172 202 193 136
-321.244931 426.031160 1539.384460 97 98 36
-406.915665 902.871037 1583.008575 109 129 130
-406.915665 902.871037 1583.008575 109 129 130
-321.147203 429.604721 1536.894321 130 126 68
-320.191002 435.626268 1532.337189 119 119 65
-318.259883 456.044722 1521.856880 131 129 89
-451.058912 -118.838477 1965.645981 207 194 132
-318.067694 466.876984 1517.366982 140 136 111
-371.653175 423.051167 1642.770767 97 98 59
-321.598554 434.066010 1530.455971 193 193 169
-320.007586 454.797983 1521.203613 205 199 176
-324.807143 419.291782 1539.809990 179 180 136
-320.653868 450.352907 1512.404251 192 187 172
-325.464272 408.097839 1531.922626 62 63 24
-323.655891 427.575636 1518.647003 136 133 95
-318.832254 476.240969 1494.971943 209 205 200
-461.930466 -118.943393 1962.556458 86 84 50
-461.930466 -118.943393 1962.556458 86 84 50
-461.183977 -116.348100 1942.976952 104 96 79
-430.060244 -105.098939 1872.231102 255 255 255
-319.297981 459.612131 1484.141064 83 82 72
-316.132784 432.296324 1483.954334 126 128 92
-329.394841 415.248632 1515.944290 96 95 61
-317.602849 454.164505 1480.064011 151 153 133
-328.527427 419.803476 1511.633873 92 91 40
-330.126524 399.716306 1519.947910 99 92 37
-315.569425 446.998501 1475.236797 113 111 80
-438.472462 -102.850986 1882.411385 252 251 253
-463.858175 -114.094520 1938.533020 180 164 117
-317.696500 434.159136 1479.761696 253 255 249
-345.885348 386.432981 1552.234840 167 163 92
-459.539700 -106.598592 1925.386810 134 124 94
-317.482066 445.932865 1474.655914 255 255 244
-345.476818 399.444795 1544.478607 52 55 16
-360.333657 380.521607 1580.291653 81 81 63
-329.689240 423.748446 1502.469921 148 147 113
-466.712809 -122.425234 1937.865639 188 177 120
-333.700275 402.211332 1514.031219 163 161 126
-321.455979 430.086660 1479.838371 255 253 255
-472.512197 -134.549975 1946.489143 161 157 104
-305.766535 693.819475 1371.406746 129 130 128
-305.766535 693.819475 1371.406746 129 130 128
-309.420896 654.251337 1389.171314 157 157 157
-307.971931 675.304127 1380.374622 143 145 145
-307.971931 675.304127 1380.374622 143 145 145
-472.544098 -127.481580 1940.370941 72 65 26
-473.545456 -130.396640 1942.281342 192 189 144
-339.321828 391.881418 1516.629028 97 101 90
-308.749032 674.122477 1375.497913 135 137 138
-336.706090 393.100381 1505.740261 194 189 180
-337.030482 388.849330 1507.089710 87 86 76
-333.443189 343.907714 1507.256603 69 56 12
-468.722010 -110.418546 1912.371826 83 69 51
-333.205485 345.323849 1505.257511 255 255 239
-309.432220 691.691399 1366.218853 136 139 147
-472.472763 -109.976506 1917.419052 186 172 119
-386.437058 371.778989 1609.446526 149 151 139
-437.830830 -70.906687 1828.659630 102 89 63
-386.824727 370.279622 1608.381462 113 117 111
-317.535162 608.656454 1399.266911 166 164 163
-336.112785 373.621917 1497.016335 142 137 98
-311.669612 676.140404 1367.903137 141 142 140
-311.669612 676.140404 1367.903137 141 142 140
-470.972729 -161.710191 1918.341064 255 255 255
-369.367075 367.974734 1566.826725 115 146 149
-313.561511 665.191269 1372.060204 196 195 197
-338.491416 337.922001 1503.747654 96 77 39
-315.929961 661.321878 1373.063183 132 134 135
-315.929961 661.321878 1373.063183 132 134 135
-338.787818 378.288507 1490.105724 255 255 255
-446.441078 -77.204031 1831.537437 250 251 255
-342.325592 375.221968 1496.368122 108 105 84
-342.325592 375.221968 1496.368122 108 105 84
-450.304079 -82.430905 1840.821266 255 252 253
-342.142010 339.991879 1501.825333 255 255 254
-467.183828 -100.392389 1875.889206 132 122 68
-377.907610 349.454379 1571.537495 83 106 108
-460.899019 -86.815238 1850.467300 52 45 36
-318.255496 678.425646 1358.983421 126 129 127
-471.874905 -63.376296 1863.920784 42 31 17
-477.813721 -114.803767 1888.396645 183 178 115
-318.026805 622.911263 1361.583710 135 120 124
-476.797962 -116.689944 1880.354691 193 185 126
-321.402335 658.746147 1361.788654 144 145 143
-472.673273 -62.621838 1857.460785 97 92 67
-472.673273 -62.621838 1857.460785 97 92 67
-320.009828 697.714710 1347.723675 200 200 200
-477.626848 -121.549129 1879.700851 117 103 45
-321.541882 671.850252 1352.750015 157 157 157
-351.100397 312.397027 1496.833324 60 60 44
-458.594322 -78.626847 1818.377686 255 255 255
-362.949967 316.284800 1517.127132 154 162 152
-348.880625 306.350422 1484.992695 255 254 255
-323.392081 680.337095 1345.629597 187 189 183
-481.743002 -83.897758 1861.797905 102 86 33
-481.016874 -77.663273 1852.846336 162 145 78
-488.302040 -91.497797 1859.608269 125 105 40
-470.559263 -72.091645 1816.128159 86 71 62
-470.559263 -72.091645 1816.128159 86 71 62
-358.666706 294.243479 1488.436604 255 255 242
-324.938655 707.714272 1322.792435 119 122 107
-340.432882 662.745428 1361.602211 162 145 154
-339.211798 659.299660 1343.353748 35 29 30
-339.211798 659.299660 1343.353748 35 29 30
-364.947033 683.541012 1363.781548 136 134 126
-461.925316 824.654865 1496.191692 168 171 175
-461.925316 824.654865 1496.191692 168 171 175
-465.456581 824.678326 1494.780636 58 57 66
-465.456581 824.678326 1494.780636 58 57 66
-528.796673 930.519962 1603.829193 58 62 73
-208.710384 327.643609 923.045063 28 27 23
-208.710384 327.643609 923.045063 28 27 23
-535.347843 921.578121 1612.199402 64 62 68
-538.063622 922.881413 1612.513351 179 177 183
-539.292622 922.366238 1613.128853 168 171 175
-539.292622 922.366238 1613.128853 168 171 175
-538.903189 923.998451 1611.582565 79 83 108
-542.430115 922.410774 1611.907387 58 57 66
-220.776939 323.564863 905.795097 142 122 104
-425.135183 709.994698 1351.084042 163 152 144
-579.397202 992.600536 1679.835701 58 62 73
-32.081288 881.914616 1710.837555 103 105 106
-27.493176 524.499083 1955.816269 255 252 230
-42.689061 881.382942 1717.374611 114 112 112
-31.533161 525.251245 1956.712341 62 44 27
-31.979352 523.397779 1955.516434 56 53 55
-46.380517 881.369495 1717.957306 139 141 142
-36.377779 524.627256 1958.138466 185 187 187
-46.991894 884.879684 1713.675690 88 88 94
-47.042871 891.039276 1709.062767 157 159 160
-47.245911 888.257504 1710.216141 96 98 98
-51.465625 849.703121 1727.038765 70 72 80
-54.890341 884.776783 1704.333878 111 114 112
-55.222571 861.394024 1718.393326 98 102 103
-55.222571 861.394024 1718.393326 98 102 103
-52.826822 528.933287 1945.796585 109 108 110
-29.737747 816.913128 1714.233971 111 115 120
-55.887330 859.677601 1716.544914 171 174 178
-58.289599 845.015049 1722.958183 173 176 180
-59.195971 827.452660 1733.998680 90 94 99
-60.633838 526.089811 1942.719269 129 130 126
-58.896065 854.463005 1711.774826 95 100 103
-60.234469 841.359997 1720.685005 181 183 183
-56.612164 530.225611 1930.858803 149 147 139
-60.235500 837.631416 1721.334648 178 182 183
-62.363172 852.616024 1713.591194 166 169 173
-48.672503 567.756033 1892.494774 76 73 58
-61.009622 814.709949 1736.107635 116 121 124
-61.009622 814.709949 1736.107635 116 121 124
-49.388841 556.522131 1897.527695 252 238 239
-51.017171 560.824633 1895.564651 143 135 128
-63.509715 875.652027 1693.045235 66 69 74
-64.679474 847.650623 1710.494232 165 168 166
-67.872483 528.926611 1930.271721 41 43 43
-69.631064 873.041725 1693.782616 125 128 133
-47.542480 755.032444 1745.796013 255 246 234
-59.784412 562.516737 1892.233276 107 111 106
-62.115252 569.787502 1889.137077 33 34 32
-60.396141 730.655050 1775.836182 178 179 183
-100.621915 883.958530 1722.404480 73 77 82
-59.802157 740.722227 1767.893028 109 121 127
-63.699782 577.892208 1882.264328 44 47 45
-84.206623 527.863407 1938.963127 110 118 111
-65.755183 567.550659 1887.734795 22 27 30
-60.449994 707.556772 1784.630775 48 50 60
-82.204086 531.221342 1931.251335 135 140 138
-82.204086 531.221342 1931.251335 135 140 138
-79.479271 531.226110 1927.139664 122 124 112
-62.293780 704.316187 1787.470818 168 173 182
-58.673412 685.202789 1795.085907 66 68 69
-64.288527 742.693090 1762.730598 157 163 174
-53.382951 600.884533 1843.145561 255 245 243
-71.270329 803.197765 1729.056931 105 111 110
-71.270329 803.197765 1729.056931 105 111 110
-63.234681 709.997320 1781.343079 11 17 24
-72.562277 804.764938 1728.049469 171 172 170
-66.682082 736.668015 1765.634918 140 147 150
-56.324518 607.234287 1838.511848 255 254 242
-65.588516 713.238096 1778.766060 137 138 142
-72.884703 869.851112 1682.195091 124 126 127
-74.095660 577.291965 1880.847168 138 142 147
-57.943982 655.717516 1806.938171 164 159 160
-65.650082 718.913364 1774.012756 163 166 170
-62.040335 665.970612 1804.206467 172 174 175
-74.025029 542.144060 1902.767754 92 94 72
-96.600842 523.020411 1944.299126 166 170 164
-65.378976 595.472288 1854.993820 32 39 42
-64.978307 689.528370 1790.073967 39 43 54
-65.214711 708.730984 1776.853943 32 37 40
-78.676313 565.180874 1889.722252 69 75 80
-76.813912 594.333172 1867.623901 111 134 150
-74.872869 540.286255 1901.255798 88 91 69
-63.385272 613.411903 1836.048126 65 74 78
-63.699234 603.890371 1842.300797 127 135 135
-83.379138 578.967667 1883.994484 32 36 41
-64.702606 649.433517 1812.212944 47 50 54
-82.152134 602.377129 1865.995979 114 138 156
-60.724807 629.005861 1820.427322 255 251 245
-65.413338 615.352058 1835.101509 44 53 62
-68.676066 666.795921 1803.469849 144 149 158
-62.953389 624.943972 1823.943901 255 249 227
-65.434486 705.533218 1772.540283 52 60 67
-66.890401 651.517630 1809.497261 158 161 166
-67.182153 651.818705 1809.605408 158 161 166
-67.723894 623.096228 1829.361343 177 179 179
-67.566234 685.618401 1787.038231 59 68 78
-81.556708 599.834871 1861.933708 11 14 22
-82.007927 580.934238 1874.610329 149 159 176
-82.007927 580.934238 1874.610329 149 159 176
-82.159448 555.413818 1890.506744 145 147 125
-83.889204 588.888407 1870.283127 42 48 55
-67.359394 627.095747 1821.933365 85 88 96
-71.572649 658.221865 1804.348946 95 105 122
-84.823668 596.749544 1860.103607 118 134 151
-78.715241 700.863075 1781.841850 173 174 178
-73.513216 620.911026 1828.070068 132 138 157
-73.793489 610.506058 1835.235596 31 34 42
-73.868304 620.565462 1828.620529 132 138 149
-87.492746 595.869541 1862.320900 120 131 135
-101.519883 700.353336 1806.240654 139 142 147
-72.505599 646.132517 1808.635521 40 48 65
-78.248942 612.374878 1834.626770 141 150 159
-78.248942 612.374878 1834.626770 141 150 159
-78.753883 609.136438 1835.995865 153 158 157
-78.753883 609.136438 1835.995865 153 158 157
-80.597121 871.197414 1664.710236 163 162 164
-79.842979 618.722010 1829.183388 21 29 36
-83.515900 635.531425 1821.100807 150 155 156
-82.046485 608.447027 1836.916733 18 23 26
-83.956659 751.194429 1743.234634 114 113 115
-87.222070 590.119886 1852.890015 133 136 144
-85.785174 625.472450 1827.695847 156 168 168
-86.426538 623.301983 1829.608727 143 152 156
-97.319221 568.072653 1880.112648 46 52 57
-101.474893 561.877632 1886.177063 138 139 113
-89.590979 598.607969 1845.719337 143 154 162
-100.001478 563.826656 1881.683350 150 154 148
-100.001478 563.826656 1881.683350 150 154 148
-89.560980 623.595190 1828.535271 79 91 91
-89.560980 623.595190 1828.535271 79 91 91
-90.358359 589.243317 1851.244164 157 157 157
-103.715551 564.697981 1878.080559 123 132 141
-105.900371 565.521765 1874.591064 17 19 19
-109.477007 566.465282 1878.232956 23 26 30
-109.293985 566.666555 1873.584747 118 121 119
-97.121412 566.245937 1855.492783 53 59 64
-137.289858 521.636295 1934.892654 168 175 168
-112.503374 563.994122 1874.165726 97 95 64
-99.577230 566.534710 1852.786636 120 123 127
-99.577230 566.534710 1852.786636 120 123 127
-100.314152 615.342236 1821.726227 129 134 143
-118.492973 557.666016 1879.736519 143 142 104
-105.752826 567.640018 1849.975777 67 72 71
-116.922092 573.158741 1849.139786 119 122 90
-131.020808 563.661385 1872.528267 54 65 33
-113.549030 566.298199 1847.339630 51 57 26
-118.398023 575.497961 1846.053505 132 132 114
-122.295737 416.815901 1933.876610 184 187 125
-122.850525 580.454969 1830.831146 117 119 83
-122.850525 580.454969 1830.831146 117 119 83
-161.768055 527.302408 1911.894798 114 121 124
-130.566442 572.771645 1840.505409 137 141 76
-125.461137 609.076023 1810.559273 185 186 184
-128.636646 418.492746 1931.928062 169 168 110
-129.487896 591.462421 1820.113754 71 71 53
-130.243754 861.054993 1651.872635 191 193 194
-151.436222 474.844933 1909.152985 138 149 109
-154.278207 479.257059 1908.084869 187 195 172
-141.978657 415.296030 1929.923058 136 139 100
-179.744518 526.275206 1907.308769 98 116 115
-165.228629 537.282515 1880.183601 71 75 50
-148.395097 415.437412 1930.516243 51 51 45
-79.421502 -129.605055 2165.686226 48 34 16
-77.412695 -111.582446 2150.993347 81 68 54
-88.657063 -5.865592 2101.218033 255 255 255
-169.127250 559.242773 1859.921265 43 51 34
-146.682000 767.647648 1699.477005 72 65 38
-165.326571 435.018206 1918.247032 124 133 120
-162.592578 415.905666 1924.481583 113 124 86
-164.854205 418.972731 1922.021866 54 61 46
-173.794413 471.291828 1901.711273 101 127 91
-175.177729 567.302990 1835.593796 82 75 26
-102.792525 14.896750 2061.778641 252 253 255
-103.814900 10.713921 2063.996887 31 28 24
-131.147146 143.046367 2023.211479 124 114 74
-161.091101 832.758999 1655.139923 124 121 117
-218.731403 525.986433 1916.154099 30 43 45
-177.631199 414.657116 1923.770905 53 55 55
-128.680074 -59.118569 2133.903122 57 46 26
-144.128489 157.502246 2024.690819 171 175 150
-123.223090 -173.252308 2187.590599 179 166 98
-132.927537 -92.490608 2153.079987 45 37 20
-129.792905 -56.875789 2124.879074 124 112 76
-183.823907 417.112541 1921.264648 56 56 56
-134.306526 -116.674483 2165.781975 96 79 40
-122.879267 -41.363391 2103.387642 85 82 68
-135.187924 -98.778003 2153.341103 137 120 64
-133.457839 -72.422510 2134.026718 127 120 71
-193.280697 459.922409 1902.161980 90 105 73
-149.136090 98.060668 2050.121880 68 56 38
-198.029625 470.795536 1899.398804 74 98 64
-134.609926 -60.571241 2120.590591 103 100 79
-156.407106 155.398107 2023.161507 62 53 44
-142.228961 -118.730080 2162.502480 54 42 14
-139.706075 -146.785057 2174.929810 176 167 103
-158.314002 154.417789 2025.358391 70 64 53
-133.784556 -57.476354 2113.643265 86 89 73
-202.270937 473.367977 1899.332237 127 153 129
-156.827307 139.183712 2029.393959 195 181 123
-140.493774 -150.056434 2174.057770 68 61 22
-140.493774 -150.056434 2174.057770 68 61 22
-141.538656 -160.960782 2179.520416 55 50 19
-122.053325 143.628109 1974.303627 54 47 30
-159.820509 85.115218 2060.439682 111 103 50
-159.820509 85.115218 2060.439682 111 103 50
-195.079076 413.080263 1918.507385 53 53 59
-235.335922 516.922760 1912.976074 64 82 89
-148.399651 -94.459057 2143.098831 57 48 21
-120.302951 173.451304 1947.747612 255 255 255
-197.862530 414.580679 1915.873146 100 106 105
-159.303820 -166.046143 2194.282150 36 29 14
-163.686121 -181.146383 2208.927155 189 184 121
-119.940817 173.705947 1943.369865 38 26 8
-152.118492 -99.034292 2144.591331 64 56 33
-216.768503 554.724169 1859.196854 118 112 41
-162.994778 -152.552950 2187.888527 62 54 37
-167.333698 64.929962 2069.006348 192 181 119
-162.880969 -157.398045 2190.113068 42 35 16
-157.417488 -118.971515 2160.008812 82 69 23
-114.812398 171.564496 1933.325005 43 37 24
-171.721721 147.724366 2024.230194 63 46 43
-169.467735 40.482518 2082.343483 202 189 111
-168.926752 43.116018 2079.797745 48 33 24
-216.009426 549.911213 1855.670357 124 110 38
-167.071533 -150.950515 2188.020325 115 110 89
-169.468141 36.239550 2081.748390 78 56 20
-186.941600 806.236267 1666.063881 150 140 133
-124.491549 157.486165 1948.148537 16 14 14
-163.773894 -98.219454 2145.470619 44 35 26
-172.145796 -10.916863 2106.223488 42 28 22
-183.719647 -149.690032 2201.418686 186 170 124
-170.606124 120.321476 2028.971672 125 122 84
-171.127343 51.921886 2068.086052 141 125 83
-170.971632 77.900451 2051.566887 92 83 70
-210.518742 565.659952 1828.577995 110 114 55
-171.878219 90.165442 2040.248489 75 75 63
-171.878219 90.165442 2040.248489 75 75 63
-173.116577 28.423089 2076.335526 90 85 64
-182.018566 169.309294 2008.361816 12 10 9
-171.999907 95.784426 2035.497284 103 97 90
-174.751902 -217.219543 2210.102654 46 40 33
-177.684641 105.647528 2030.012131 52 44 37
-198.243546 -137.714005 2196.140480 207 196 114
-234.354544 554.411602 1852.414894 181 169 91
-203.504491 -136.651599 2193.119049 201 190 122
-202.620864 817.656803 1654.246902 188 182 171
-195.122612 -36.281455 2119.747734 53 44 35
-206.219149 -135.884976 2190.827942 207 199 129
-205.536199 -148.116684 2195.038033 98 88 64
-198.286808 -59.245676 2130.931664 156 145 101
-154.985714 166.533017 1943.532944 38 34 33
-154.985714 166.533017 1943.532944 38 34 33
-230.372047 419.914436 1909.253883 29 34 35
-214.218783 -138.876796 2196.113586 200 191 123
-199.764681 -48.606518 2124.794960 150 145 112
-209.850264 -140.131605 2189.307785 204 192 120
-209.850264 -140.131605 2189.307785 204 192 120
-87.596911 191.921830 1829.848289 152 140 100
-255.741525 534.961224 1879.665756 91 114 99
-87.983489 182.708204 1834.825325 145 131 82
-200.598693 -70.854747 2135.393333 140 137 109
-202.641273 -1.407348 2099.608231 121 121 85
-88.047636 197.990704 1825.171661 43 37 30
-207.650399 812.804222 1655.679131 184 178 171
-202.562904 -58.738786 2130.215645 32 26 3
-205.896306 8.767720 2095.518494 50 42 35
-218.652415 -128.605175 2187.189484 185 175 111
-203.107119 -49.253032 2120.807457 39 34 25
-211.635184 -133.970678 2179.161263 14 10 9
-210.890508 825.762177 1647.060013 95 87 64
-210.890508 825.762177 1647.060013 95 87 64
-240.010691 451.125383 1891.744232 132 151 118
-210.234976 -12.673406 2103.326225 50 44 37
-213.296032 821.581936 1649.254990 185 184 180
-232.245040 183.486056 2026.142311 187 177 113
-214.133620 137.767577 2024.994278 35 28 8
-233.029938 -116.894662 2191.759109 216 200 134
-207.725048 -43.394235 2114.553642 99 98 84
-238.666248 201.888609 2023.335266 210 194 151
-99.455225 168.490005 1840.213776 117 111 88
-99.435425 172.103918 1837.745285 113 110 95
-212.114024 -4.282340 2095.551300 37 35 25
-209.047413 -43.148106 2112.091637 30 28 18
-218.124366 29.664552 2084.667587 54 46 39
-243.448877 430.501032 1901.122856 63 100 90
-102.731764 166.461134 1841.977692 30 27 22
-101.250863 180.342817 1831.842804 30 27 22
-218.434930 46.193278 2072.945976 88 88 74
-237.971616 563.638544 1818.810844 61 60 10
-103.798306 165.581405 1840.889359 27 24 20
-101.743758 119.430256 1862.310791 47 45 35
-222.848678 29.348114 2085.787964 154 153 133
-222.880936 40.573505 2078.232574 35 32 28
-105.436623 167.654014 1839.801979 26 22 21
-270.109153 537.022114 1876.236916 27 35 34
-215.211058 -31.942859 2105.675507 47 46 32
-217.795253 -19.158521 2101.051331 118 120 101
-219.149804 -12.316545 2098.775864 155 157 127
-105.583704 185.467446 1826.033974 114 109 76
-105.945253 110.037720 1864.619446 134 127 110
-218.862104 -34.366301 2105.054665 43 40 32
-109.446359 125.687551 1860.346603 29 27 27
-110.592306 110.883558 1865.334511 39 34 25
-113.188517 127.753913 1858.709145 69 66 62
-113.188517 127.753913 1858.709145 69 66 62
-110.733736 182.331467 1824.383545 20 18 18
-276.670814 533.698893 1874.524307 84 106 104
-232.599068 3.363789 2095.577049 122 117 92
-290.874910 517.514610 1900.070381 84 104 109
-290.874910 517.514610 1900.070381 84 104 109
-240.127110 -68.645668 2137.291336 166 170 129
-293.102407 516.432810 1899.547958 27 45 46
-293.102407 516.432810 1899.547958 27 45 46
-233.839440 769.467735 1676.265717 180 170 122
-258.384967 -125.511348 2188.079262 192 179 105
-285.528111 537.525272 1873.579979 20 27 30
-289.536762 524.312639 1884.740448 13 16 20
-254.206347 157.459021 2028.184891 48 59 57
-247.640324 -63.275462 2134.844398 139 142 110
-116.321230 182.139182 1813.157272 157 146 116
-255.007410 166.307914 2022.171021 26 38 40
-289.252782 523.604202 1882.492638 81 90 87
-258.559775 -132.820594 2185.084152 176 156 91
-255.522561 114.540088 2046.995926 155 142 104
-290.110993 530.331516 1875.364304 99 123 113
-258.305979 -113.535988 2167.640114 42 36 23
-250.960422 -16.673639 2104.699898 117 115 97
-251.287913 -23.575394 2108.632278 131 133 111
-260.052109 93.320942 2058.971596 168 156 120
-261.595702 -161.581957 2192.576027 56 41 15
-261.105061 -168.519354 2194.599915 49 38 0
-255.713487 -57.273650 2127.028465 33 30 26
-296.352386 523.751879 1881.383133 79 90 88
-123.162961 168.085492 1814.334106 54 49 24
-126.122069 152.480030 1825.371170 53 46 21
-295.143437 528.635359 1875.083542 107 118 108
-275.487185 456.330872 1882.813072 103 118 90
-271.537185 177.194202 2020.953178 17 27 34
-265.990877 54.034138 2076.242638 137 135 111
-277.289844 188.014245 2019.861031 100 114 120
-268.576050 46.216568 2080.611801 176 167 130
-264.391112 -203.272319 2202.258301 92 80 40
-263.151979 -212.997460 2205.192184 191 194 149
-261.105275 -253.476453 2217.531204 184 178 113
-272.291398 -12.724933 2109.083748 47 38 28
-287.205219 184.180355 2025.296402 51 46 37
-280.879998 65.743726 2077.010727 22 18 23
-287.778950 185.124516 2025.493622 51 46 37
-250.249934 817.836475 1641.866493 115 101 82
-287.240171 124.450529 2053.531075 52 44 27
-269.097233 -206.955314 2197.312164 192 186 133
-283.614707 199.908352 2006.066322 14 14 14
-137.618518 92.478228 1845.322418 19 16 12
-288.823915 91.182226 2069.073486 95 84 57
-275.731921 -197.320998 2196.271133 60 53 36
-134.205973 127.214944 1818.267441 184 165 128
-243.578362 -373.913360 2236.043549 34 23 19
-281.811643 561.193943 1809.669113 109 114 69
-268.368721 -343.307233 2245.706940 113 102 88
-294.916558 32.640207 2093.828583 188 174 121
-260.535336 -358.049011 2240.797234 33 23 16
-305.085969 533.016682 1853.985214 31 39 22
-304.172516 -122.361720 2184.426880 215 205 151
-267.483425 -349.854851 2243.286705 51 42 32
-261.007190 -359.123564 2237.218285 62 51 47
-300.530744 191.050911 2017.195320 64 66 54
-300.530744 191.050911 2017.195320 64 66 54
-295.723033 450.821161 1877.997398 92 111 86
-266.121602 -353.871822 2240.469170 95 85 75
-297.749615 -10.727535 2111.848450 161 142 107
-298.279452 -15.387556 2114.537239 56 46 39
-226.821780 -407.945776 2204.131889 54 42 38
-304.968381 69.197053 2072.879410 168 163 118
-301.828671 21.756293 2091.469574 172 161 104
-312.985992 -94.730312 2166.487122 191 184 115
-305.928683 63.008589 2075.424957 94 81 49
-305.305004 118.713081 2046.308517 191 179 125
-301.291418 172.923934 2010.606956 191 172 121
-301.954556 169.635046 2012.392426 57 41 5
-303.559732 156.962395 2020.881844 52 39 1
-305.893946 52.453005 2075.569344 50 42 35
-307.575464 29.978347 2087.765312 196 183 131
-306.162453 115.884233 2041.320801 168 153 107
-306.162453 115.884233 2041.320801 168 153 107
-309.784269 -128.342402 2167.889595 154 158 106
-309.981966 -116.158235 2161.685753 164 167 105
-304.679942 -179.770195 2183.966064 52 49 44
-304.679942 -179.770195 2183.966064 52 49 44
-311.670756 -109.303296 2158.079529 89 85 61
-311.670756 -109.303296 2158.079529 89 85 61
-302.186155 169.489014 2005.002213 52 38 26
-314.726686 531.979990 1842.221642 29 25 14
-312.713838 -129.098713 2166.046524 94 86 73
-304.975224 -200.996470 2187.757492 46 41 43
-302.830172 173.690736 1998.911858 163 150 94
-311.145282 -142.214620 2166.848755 171 171 131
-252.072978 441.671991 1788.661957 123 120 52
-304.550529 -208.395600 2188.482285 37 30 11
-306.537247 192.381752 1993.261337 103 110 95
-274.144769 874.805832 1607.560730 162 167 152
-260.743117 -42.110130 2037.851715 38 33 30
-312.024379 -19.849731 2103.977966 157 146 86
-310.009623 -9.080099 2095.534515 163 150 88
-308.467650 69.921327 2053.636551 149 142 93
-307.910347 73.012924 2050.785637 156 144 90
-311.386132 -4.937271 2093.760490 65 54 26
-275.211811 857.412720 1614.342308 162 164 158
-313.933015 -136.461401 2159.531975 172 177 126
-319.238257 -171.215153 2182.641983 188 183 120
-316.552901 -164.339232 2174.964714 171 172 138
-312.714577 -14.195323 2094.620132 137 135 77
-311.987305 -13.245291 2091.016197 178 177 121
-273.870850 311.800289 1873.939705 115 113 103
-280.394340 858.866119 1614.944839 174 177 175
-313.901687 -17.740701 2093.359184 157 159 113
-300.599909 -268.306446 2193.331718 32 27 26
-319.718599 -177.299118 2177.074051 191 193 133
-288.584661 243.904591 1924.225807 86 88 66
-315.915418 -15.510552 2091.177368 50 43 23
-302.142072 -262.688351 2190.415764 151 146 121
-309.720254 126.858294 2011.613464 145 135 95
-287.906504 157.821059 1963.228226 78 81 72
-286.189771 245.203853 1917.728424 104 106 86
-342.248321 519.721603 1869.046593 74 85 89
-320.626354 447.996712 1871.195984 62 82 69
-287.794137 294.277239 1896.008873 138 128 110
-287.879562 263.036346 1911.151886 122 120 90
-287.879562 263.036346 1911.151886 122 120 90
-317.765760 -17.225952 2091.225433 139 139 123
-305.180025 -260.842705 2188.019943 43 34 25
-325.701547 434.223127 1881.417465 56 87 88
-339.193153 527.768278 1855.583954 17 28 26
-324.477506 -186.052394 2177.911568 153 154 110
-346.781540 520.666075 1866.198158 11 22 26
-327.074385 -186.361659 2176.615334 167 165 131
-336.089540 -89.886528 2143.513680 91 88 73
-296.582294 166.021252 1959.253883 50 50 44
-296.582294 166.021252 1959.253883 50 50 44
-327.740049 -183.924210 2174.112320 58 50 33
-320.929098 564.364243 1801.476288 64 61 17
-296.558571 240.294456 1919.685173 18 13 12
-299.532175 246.745491 1919.433975 140 134 115
-330.858946 445.000792 1871.745491 159 172 164
-299.609947 202.566361 1939.068794 12 7 4
-312.595153 585.633039 1775.580215 67 66 5
-331.816530 -182.822323 2171.858215 57 47 37
-297.499061 204.753232 1934.236908 13 12 8
