ply
        format ascii 1.0
        element vertex 68662
        property float x
        property float y
        property float z
        property uchar blue
        property uchar green
        property uchar red
        end_header
-8.417051 4.416260 130.782211 105 98 71
-10.107435 -2.917953 134.284103 49 32 11
-16.900250 14.078727 124.763632 107 114 99
-8.441238 3.941092 131.175029 48 39 29
-2.322106 33.234835 117.123485 173 163 99
-8.758758 1.986481 132.134652 68 50 21
-8.716037 2.168691 132.056499 64 45 18
-9.181346 0.926717 132.713485 74 55 22
-9.072183 1.746130 132.327843 105 91 62
-10.206017 0.490949 132.888985 86 73 47
-9.040995 1.830528 132.394004 88 73 40
-2.003608 32.633936 117.663074 79 78 28
-2.399119 33.131015 117.374814 109 100 43
-9.115729 2.296827 132.244062 190 177 121
-9.526887 1.160572 132.784247 78 65 39
-3.359235 22.839986 122.595596 75 83 42
-2.518788 34.824106 116.657507 139 133 68
-1.257108 50.320250 108.920908 110 109 105
-9.432630 3.181810 132.018650 78 58 33
-9.432630 3.181810 132.018650 78 58 33
-0.476606 54.071486 107.425916 169 174 173
-2.555536 35.118064 116.933966 163 165 119
-17.554061 -9.624340 138.132071 48 36 18
-17.554061 -9.624340 138.132071 48 36 18
-17.689605 -10.278831 138.463473 156 145 88
-3.503644 23.006897 123.276186 161 168 101
-3.503644 23.006897 123.276186 161 168 101
-3.503644 23.006897 123.276186 161 168 101
-0.496525 54.315394 107.585597 130 133 131
-0.677837 54.133362 107.691622 109 112 110
-17.769091 -10.184941 138.612640 98 80 33
-17.769091 -10.184941 138.612640 98 80 33
-16.193195 -10.461044 139.141440 25 19 20
-17.741348 -8.711893 138.036096 136 120 74
-3.533165 23.130043 123.470294 60 56 0
-11.474183 8.512814 130.000567 118 110 73
-2.552766 35.049781 117.482209 73 77 42
-16.252100 9.932321 128.772604 25 20 21
-20.907643 10.261741 128.023636 39 30 27
-17.661853 -9.275068 138.561952 155 131 77
-18.362378 -10.292241 139.037120 109 90 29
-17.681104 -8.790431 138.361871 49 36 22
-18.035023 -9.245641 138.560653 49 36 14
-16.609636 1.771642 133.053064 151 144 119
-0.599943 54.338151 107.907736 167 173 172
-16.072802 3.672349 132.210135 57 41 28
-19.323245 -8.208730 137.968123 25 17 17
-0.613925 54.199815 108.050895 134 138 133
-0.737771 54.399055 108.016551 163 168 169
-0.956047 53.278244 108.600569 88 93 94
-12.595807 9.216145 130.078030 183 176 121
-1.473998 27.243423 122.196233 165 162 131
-16.742635 14.542326 126.896620 255 255 255
-16.742635 14.542326 126.896620 255 255 255
-2.297432 33.750892 118.824196 170 162 109
-2.297432 33.750892 118.824196 170 162 109
-12.869386 9.349874 130.254626 71 52 15
-2.213262 33.585617 119.023681 158 150 90
-0.310065 55.303085 108.063579 157 158 154
-0.443293 55.022806 108.328938 181 179 179
-13.223629 9.976131 130.327535 155 150 101
-2.440775 33.927369 119.122195 174 168 133
-0.729755 54.770881 108.449078 105 113 112
-2.344155 33.450902 119.399476 161 163 117
-1.303000 48.903495 111.467600 153 146 96
-2.282888 33.357388 119.479346 74 70 41
-2.529142 34.041357 119.253314 107 107 93
-1.833416 27.509886 122.891510 169 167 132
-2.244282 33.527124 119.728875 67 57 27
-2.594418 33.792126 119.560385 158 157 131
-2.328106 37.195259 118.173027 138 140 128
-0.958921 54.950559 108.991039 163 173 173
-3.813213 24.142824 124.956357 84 76 53
-0.023015 29.294527 122.870910 107 107 93
0.238503 28.876889 123.146403 164 161 147
0.145604 29.453254 122.887158 98 98 84
-2.389668 33.940011 120.251811 145 144 130
-3.834070 24.265735 125.265944 74 61 45
-0.276794 29.724663 122.812510 34 34 28
-1.502617 33.124238 120.936513 124 117 78
-0.667544 55.351472 109.409404 94 102 102
-0.667544 55.351472 109.409404 94 102 102
-2.054336 28.015006 123.781562 169 167 127
-3.399521 26.582658 124.519885 173 176 137
-2.665143 34.106579 120.665133 134 136 130
-3.067111 27.057710 124.401617 121 127 68
-0.647985 55.720615 109.428227 105 107 108
-1.615062 32.766950 121.614337 151 134 95
-1.545948 33.186284 121.442926 54 54 36
-2.487012 34.430650 120.706022 128 130 124
-1.572993 33.641601 121.413016 172 167 164
-11.775379 29.455301 122.699487 173 170 166
0.037137 56.692201 109.363556 182 184 194
-1.635072 33.025193 122.037125 155 143 101
-2.119242 37.921306 119.389665 107 102 104
-2.026051 39.263633 118.715739 119 115 120
-2.179860 33.978826 121.540117 44 45 49
-2.024566 35.010532 121.016419 89 91 92
-0.610443 55.331123 110.274541 184 184 184
-2.079834 36.813092 120.068789 172 171 173
-1.932108 38.590881 119.169056 88 83 85
-0.916792 51.443553 112.446272 85 88 102
-15.859888 14.776531 130.691230 75 73 73
-0.648595 30.318993 123.856616 72 73 69
-0.775043 30.426678 123.793793 41 41 41
-1.977685 38.395053 119.423652 141 140 144
-1.506683 33.480015 122.137249 152 147 146
-0.900280 50.789076 112.905562 79 81 91
-2.250270 36.225420 120.620406 21 27 34
-2.253886 35.774443 120.881951 29 28 32
-0.412130 29.975945 124.188316 116 114 96
-5.603265 24.947044 126.433861 140 126 68
-0.713349 52.578235 112.069488 130 134 135
-2.453919 38.492742 119.549298 49 52 60
-2.261534 40.253314 118.677819 33 38 47
-2.500431 38.821352 119.431412 138 147 160
-2.431857 38.004547 119.884562 60 63 68
-0.702383 52.533942 112.235904 102 105 109
-0.496511 53.256375 111.895788 98 102 103
-15.946923 15.155289 131.067944 101 88 50
-15.946923 15.155289 131.067944 101 88 50
-1.671734 36.041528 121.205485 120 125 128
-2.540341 38.831043 119.620359 52 55 63
-1.900987 32.085264 123.384356 114 110 86
-2.674261 39.156651 119.497800 138 140 148
-1.886800 44.189200 116.898584 111 114 122
-1.760185 34.395811 122.249722 150 152 153
-2.417610 38.241696 120.120251 103 109 114
-2.793422 39.299220 119.523692 153 158 167
-1.744812 45.087266 116.501701 105 110 119
-2.748242 39.628115 119.415379 83 86 100
-0.398690 51.997834 112.951016 120 116 121
-2.828399 39.297673 119.640589 74 82 95
-2.647022 40.399766 119.183671 49 53 58
-1.464770 46.622056 115.933108 90 96 103
-1.705232 34.554446 122.480905 137 142 143
0.108454 55.853683 111.086023 187 185 184
-1.364934 46.850133 115.954292 105 107 117
-16.574204 15.975592 131.437504 170 146 94
-16.574204 15.975592 131.437504 170 146 94
-2.678011 37.818822 120.830071 72 74 82
-1.781059 45.378989 116.845608 154 156 166
-2.513206 40.478680 119.456983 11 21 38
-1.748054 33.872074 123.175943 49 53 48
-1.748054 33.872074 123.175943 49 53 48
-2.397921 36.534685 121.757710 102 106 111
-2.600793 40.134877 119.778788 90 92 100
-2.348502 41.741213 118.929040 179 177 177
-0.022712 53.067213 112.981308 96 97 101
-1.403543 35.187960 122.628653 167 165 164
0.538779 57.032371 110.920310 155 151 133
-2.588732 40.387881 119.781446 80 77 79
-1.394300 46.555847 116.516137 168 168 174
0.493453 55.203027 111.954510 106 109 114
-1.622150 34.365147 123.163998 161 161 145
-2.501694 38.420391 120.886242 145 149 154
-1.377820 35.880750 122.368145 146 148 148
-1.671287 47.253016 116.153479 106 118 142
-1.671287 47.253016 116.153479 106 118 142
-16.977194 17.028075 131.413758 166 144 96
-3.324271 39.425161 120.352674 165 166 170
-1.988519 33.970687 123.444641 63 65 65
0.085879 53.524101 112.943101 142 144 144
-1.479541 46.686247 116.590941 27 32 41
-2.409112 41.383401 119.424510 178 179 177
-2.687431 38.896176 120.780349 96 106 113
-2.165521 42.670429 118.793964 80 79 88
-2.165521 42.670429 118.793964 80 79 88
-1.776625 44.532791 117.813849 181 177 176
-1.649843 48.209962 115.816915 163 169 174
-2.640546 38.765362 120.908153 56 64 71
-1.734729 35.195345 123.041368 73 71 71
-1.877047 34.282640 123.531222 38 34 39
-1.353398 46.451715 116.966534 160 158 170
-2.031899 33.823884 123.846626 112 112 100
-1.554901 46.656710 116.882801 129 136 155
-1.803981 48.016125 116.132832 134 145 167
-1.754025 35.759175 122.887433 35 34 36
1.301322 57.563686 111.255682 180 183 181
-1.930007 48.851252 115.889645 167 170 178
-1.908740 44.422641 118.328035 178 180 188
-1.968114 35.470530 123.271573 67 69 69
-2.011716 35.362047 123.362517 123 123 123
-1.963186 36.222038 122.943938 66 68 62
-1.984133 47.077417 116.983473 141 144 149
-1.920563 34.097472 124.144614 120 113 98
-1.842979 34.840101 123.777485 66 62 61
-2.025617 35.610905 123.344815 177 177 177
-2.126637 35.584420 123.670781 143 143 143
-1.875747 46.713868 117.540467 54 65 85
-1.662905 46.509096 117.675853 97 97 111
-2.193093 35.749874 123.643506 72 72 72
-1.804574 46.689394 117.682660 86 89 103
-1.804574 46.689394 117.682660 86 89 103
1.474455 57.915813 111.780536 76 80 75
0.933486 56.001556 112.847626 188 183 162
-1.231310 31.761137 126.503301 152 153 149
-1.231310 31.761137 126.503301 152 153 149
1.323864 56.932169 112.949991 174 169 160
2.069575 58.196759 112.582028 178 180 188
0.839823 57.563788 113.105464 93 98 97
0.839823 57.563788 113.105464 93 98 97
0.937788 56.661433 113.637531 94 100 105
2.061323 58.309984 112.776780 182 184 192
0.717089 57.114667 113.757217 171 172 170
0.589259 56.441629 114.145160 108 107 109
0.587099 57.727879 113.638926 28 34 41
0.587099 57.727879 113.638926 28 34 41
0.096892 56.220454 114.551890 112 111 113
0.531142 56.999022 114.154339 67 66 68
-0.251482 56.869090 114.757776 78 76 76
-1.101733 56.909537 115.070558 84 84 84
-93.427205 38.452283 125.636280 39 36 52
-93.717712 45.412415 122.090721 138 131 128
-89.796495 55.005920 116.601479 161 178 199
-89.635402 54.995698 116.624653 161 178 199
-1.684126 56.575847 121.708298 110 105 104
-88.697481 59.581119 114.728153 49 55 74
-88.697481 59.581119 114.728153 49 55 74
61.204767 58.595878 118.081355 131 111 94
1.271995 53.931069 120.500815 131 118 116
4.610631 53.251094 121.112525 130 118 118
2.972554 54.184073 120.679176 131 118 116
19.489786 58.027607 120.251131 52 49 45
-18.805148 50.318974 127.044117 79 88 126
-18.954146 50.103402 127.325118 39 36 52
-18.620180 53.047001 125.598037 78 83 116
-17.654772 59.886581 121.892345 161 178 199
25.793263 56.377178 122.398472 126 114 108
63.738441 58.635896 119.642603 131 111 94
-294.457912 -101.590765 -55.202585 55 47 47
85.460913 68.572897 133.267701 47 41 34
-294.289947 -101.218045 -54.377931 200 186 190
-283.384323 -72.435266 -57.095283 87 78 75
-291.592574 -88.009143 -56.261855 123 120 122
-287.550783 -79.286963 -56.591982 95 84 80
-295.846844 -101.127994 -53.817463 200 187 189
-296.876717 -101.210976 -53.667110 73 61 55
-294.998503 -99.798977 -52.982605 88 76 74
-295.689416 -99.118459 -51.920730 78 71 68
-291.182089 -83.575368 -53.333569 47 84 110
-42.266324 15.278344 66.655660 100 109 119
-40.980381 29.983416 62.633771 179 176 178
123.666668 79.495853 145.267928 186 179 192
8.814267 40.653834 90.812248 99 95 100
-44.081700 18.670069 68.726528 44 41 33
-44.204548 17.569084 69.148588 25 23 22
-44.204548 17.569084 69.148588 25 23 22
-44.533113 17.687245 69.136685 125 113 95
-0.289771 39.397299 89.676642 47 45 35
-44.489938 19.181463 68.785703 146 128 121
135.305607 84.877437 149.474621 125 123 129
-44.700739 20.104046 68.659043 93 79 67
131.370318 77.299547 149.878836 124 120 125
-44.133744 20.559093 69.305015 47 45 35
-44.133744 20.559093 69.305015 47 45 35
8.316225 45.024568 90.503049 61 54 34
8.472764 45.099038 90.772438 193 184 187
8.342769 42.797917 91.686052 37 32 31
8.442364 42.845532 91.745782 37 32 31
8.480495 42.177677 92.026681 23 22 24
-44.216910 18.965122 71.265018 129 111 94
7.484511 41.242582 92.406869 167 180 194
131.416023 79.204768 148.577499 37 78 103
8.205771 41.763657 92.910421 49 76 103
2.941227 28.085536 97.726583 255 255 255
4.960845 46.824497 92.315280 84 89 90
32.131073 48.863724 106.418991 188 178 171
5.559898 47.119632 93.196577 178 180 181
5.578381 47.120443 93.208736 178 180 181
4.830743 46.184209 93.258345 37 38 29
4.698937 46.467206 93.141204 70 67 36
4.865350 45.174685 93.865383 83 84 75
3.759363 18.795417 104.209697 101 101 101
4.829990 46.078932 93.522024 112 117 108
6.009709 47.449824 93.855071 185 184 188
4.981676 46.134958 93.988132 175 173 165
5.081771 46.233881 94.246614 181 184 152
3.154989 20.743430 104.501379 123 122 78
4.807586 47.002622 94.568676 141 145 109
32.487831 48.490134 108.197641 151 129 111
3.264767 21.385528 104.801488 69 66 51
4.708225 45.799065 95.210296 90 95 74
4.657348 46.887124 94.746840 117 117 81
4.570474 47.203162 94.604987 33 30 25
4.468234 44.625685 95.716399 110 111 102
2.967274 20.995969 105.090404 152 148 100
4.398610 44.630730 95.907986 177 178 174
4.485755 47.564223 94.850731 147 147 93
2.951164 20.483917 105.626285 122 124 112
4.120926 44.356358 96.138680 71 73 73
2.146906 36.725882 98.459238 92 94 88
4.154937 46.564296 95.324486 167 166 162
2.256601 36.615106 98.689687 79 80 76
0.999456 27.161509 102.122855 255 255 255
4.128756 46.143213 95.595688 130 134 123
2.076096 37.100774 98.496318 167 168 159
2.914603 20.710492 105.957007 138 138 124
4.111777 46.725816 95.429319 158 161 165
2.214450 35.407430 99.348885 168 167 163
2.941685 21.662405 105.630517 146 146 110
2.165668 37.065884 98.703450 86 90 79
1.924654 34.349781 99.779475 189 191 179
2.819427 20.888931 106.044626 46 47 37
2.070706 25.551406 103.677797 194 190 155
1.911701 26.135331 103.360295 179 176 132
1.911701 26.135331 103.360295 179 176 132
1.981920 37.591648 98.525017 149 153 148
2.119722 24.893288 104.090130 195 182 130
2.268096 36.987507 98.973930 75 77 77
2.120486 25.457641 103.918886 67 57 40
1.657953 26.679501 103.234017 154 152 128
1.348923 31.707925 100.928986 93 87 58
3.780024 46.289799 95.901632 167 168 166
1.101155 27.565676 102.712393 126 126 72
1.088421 27.910084 102.617908 156 144 96
1.786352 37.901834 98.686665 166 166 148
1.389468 31.858078 101.136816 180 177 162
1.196308 27.692398 102.922988 109 101 54
1.325192 31.333548 101.412308 105 102 88
1.140418 27.539903 103.026068 161 161 147
1.614745 33.545408 100.674391 176 175 161
2.760835 21.091062 106.675041 114 120 103
2.193717 24.491772 104.921770 169 155 102
3.065293 45.317018 96.361881 178 178 178
1.813010 36.667278 99.518001 93 92 82
1.535848 34.941772 100.253022 61 64 49
2.892439 42.783293 97.508162 131 130 132
1.985301 24.765201 104.945743 131 132 123
1.092520 27.123374 103.528023 76 81 84
2.135574 25.193697 104.881597 190 184 179
2.083867 24.638964 105.148113 90 88 54
1.283415 33.518460 100.906050 65 68 52
2.646208 41.618353 98.096120 122 123 127
0.972621 28.482762 103.014505 83 82 78
-1.385520 17.746030 106.565118 255 255 252
1.344490 34.224716 100.721085 97 101 90
1.161928 32.123730 101.592577 167 166 156
0.784825 29.297155 102.659845 162 160 152
1.036819 28.893408 102.963102 183 182 178
1.036819 28.893408 102.963102 183 182 178
1.601827 27.132791 104.040468 40 46 51
1.061737 32.050839 101.714599 135 136 102
2.975000 47.692567 95.813572 164 168 173
2.937342 46.637288 96.286172 111 114 118
2.937342 46.637288 96.286172 111 114 118
0.894145 28.123081 103.397226 53 52 54
2.849151 47.765884 95.773762 73 76 81
2.121227 25.807017 105.042803 154 157 155
106.490636 81.450236 137.387919 255 255 255
3.239781 48.774281 95.614916 174 174 150
2.077005 26.361287 104.946446 92 97 95
0.850264 30.413145 102.582276 173 174 172
2.044600 25.982800 105.130267 161 161 155
-1.537335 17.089713 107.330775 167 173 116
1.836988 25.475815 105.310357 121 124 128
1.116208 30.135384 102.917325 199 196 192
1.139354 30.985823 102.562082 203 197 186
0.942902 28.218982 103.719151 85 86 90
1.828141 24.450016 105.825007 114 102 54
0.961555 28.622866 103.583074 173 176 180
0.961555 28.622866 103.583074 173 176 180
0.961555 28.622866 103.583074 173 176 180
2.700388 47.462663 96.149862 169 171 172
1.039972 29.656336 103.199697 189 185 184
1.039972 29.656336 103.199697 189 185 184
2.148432 40.362176 99.070150 143 141 141
1.119586 27.896997 104.062617 34 34 34
1.779663 24.345587 105.951560 170 159 99
1.362642 30.813622 102.995646 157 157 157
1.308347 27.405182 104.519224 122 129 138
1.951647 24.815348 105.996561 192 172 117
1.955676 24.820179 105.997276 192 172 117
1.701066 24.607234 106.040668 53 46 0
1.127398 27.553844 104.464960 27 25 31
1.048718 28.289413 104.108226 128 138 145
2.322303 47.162694 96.385974 166 167 171
1.496144 31.165272 103.073859 189 189 183
1.450926 25.958472 105.372179 110 113 121
1.619761 26.361260 105.301070 132 138 143
1.649340 26.215497 105.402875 70 74 79
1.457776 31.551895 102.958202 177 173 168
1.809736 24.996935 106.092060 163 151 103
2.629096 48.512617 96.086490 103 107 95
1.103229 26.824352 104.994094 31 37 42
1.776390 25.133526 106.146479 164 146 85
1.294086 31.656280 103.082371 140 143 147
0.981991 25.500980 105.731428 34 39 42
0.906330 26.275924 105.473197 145 147 148
-0.113895 14.479429 110.296190 123 113 66
0.601207 25.864869 105.782223 59 61 61
1.960679 48.075730 96.635002 110 119 128
1.591005 25.388390 106.698668 33 36 34
1.591005 25.388390 106.698668 33 36 34
1.671841 24.934973 106.959486 185 180 125
-0.302930 14.920910 110.582173 98 92 51
-0.002208 14.663784 110.838950 85 81 46
1.761715 47.678527 96.886826 178 178 178
0.356019 26.234725 105.871379 64 67 65
2.231174 49.017730 96.588415 122 120 109
1.662741 25.379378 107.008874 174 171 167
-1.386120 14.960980 110.323322 255 255 252
-1.386120 14.960980 110.323322 255 255 252
1.409279 25.476992 107.104063 55 56 54
2.375795 49.174321 96.914750 130 134 115
0.637434 15.053561 111.516130 173 165 112
-0.935060 15.098935 110.766566 86 87 48
-0.719221 16.391706 110.438323 104 99 60
1.536148 25.277707 107.523656 182 180 156
0.205595 26.961747 106.209528 120 118 117
-0.718917 16.517910 110.606170 51 47 19
0.599870 15.047307 111.926365 175 162 94
2.209467 49.320370 97.172582 125 128 113
2.531536 49.748540 97.171032 177 177 177
-0.331357 17.876875 110.469532 56 51 18
-0.721274 18.600728 110.043025 84 97 29
0.042547 26.802379 106.669903 153 151 150
2.043002 23.254088 109.265924 124 132 79
-0.130992 14.440581 112.318182 150 136 88
1.504569 25.568956 108.036757 181 178 173
-0.351192 18.614195 110.375214 81 88 27
-0.351192 18.614195 110.375214 81 88 27
-128.280294 -42.418656 79.772758 39 43 32
-128.280294 -42.418656 79.772758 39 43 32
2.565268 49.998045 97.629756 176 178 186
-0.202308 27.705202 106.689334 101 101 101
2.173046 49.668893 97.739643 122 125 110
-0.435299 18.763708 110.748553 93 94 50
-1.302377 27.179828 106.525016 163 162 158
-7.638889 -2.543120 117.331147 52 44 37
-0.109932 15.562147 112.486029 157 146 88
-1.036559 16.283660 111.779773 37 31 26
-0.340321 19.069622 110.844171 127 132 77
0.639960 41.296846 101.256788 139 138 140
-6.721964 -2.692970 118.183839 45 37 24
-2.291079 12.953478 112.989593 71 60 38
-0.036203 27.108991 107.528520 67 69 69
0.918049 46.456024 99.254209 140 142 142
-0.001568 32.093927 105.478477 180 178 178
0.009871 27.415356 107.689011 151 154 152
-0.188668 29.668438 106.614590 172 172 172
-0.271412 29.173207 106.851256 182 180 180
-1.148490 16.565815 112.291420 52 41 27
-0.179423 30.962217 106.081259 121 121 121
1.073973 25.835860 109.022307 126 124 113
-5.652286 1.266970 117.400908 109 92 49
-0.560735 15.521029 113.174498 146 131 82
0.235466 39.471319 102.475572 136 138 139
2.649854 22.592038 111.405241 156 163 128
-5.277351 1.682382 117.597568 113 96 57
-5.945906 -0.192022 118.176186 95 79 33
-0.829114 17.676654 112.302792 136 144 84
0.965604 25.979981 109.308910 125 122 107
0.127316 27.722025 108.163083 155 155 155
-0.257509 20.427436 111.432278 112 123 60
-0.545244 29.838014 107.029200 72 74 75
-4.348815 8.684140 115.275252 150 148 84
-5.663086 1.404259 118.096972 165 143 91
-1.028300 15.017517 113.914049 183 158 102
-6.032807 -0.777215 119.085705 72 57 41
-0.348641 28.522500 107.932711 173 171 170
-4.300888 9.694312 115.007019 150 141 77
-1.285010 16.841088 113.013756 41 34 31
2.281544 23.335825 111.564708 101 107 84
-2.993474 11.958320 114.637172 167 141 94
-1.221073 15.140674 113.950503 66 50 13
-5.737412 0.751975 118.695498 100 81 48
-35.498589 15.292451 98.866606 101 100 102
-35.498589 15.292451 98.866606 101 100 102
-5.698740 0.048405 119.059443 161 138 92
-5.922820 -1.158553 119.573259 132 124 101
-5.292775 2.832892 118.039644 178 155 107
-1.232518 17.480837 113.007677 76 67 29
-1.232518 17.480837 113.007677 76 67 29
-1.640645 14.682831 114.168406 69 58 38
-1.192448 17.041746 113.287461 56 45 25
-5.782006 -1.895247 120.156670 37 25 19
-5.782006 -1.895247 120.156670 37 25 19
-5.897116 -2.205377 120.260870 51 43 13
-4.652646 -11.120261 125.015557 131 106 66
-1.315501 17.134488 113.238966 152 153 103
-0.042090 27.780774 108.853936 156 158 159
-2.991839 12.123949 114.933801 115 96 81
-4.754865 -12.642035 125.830531 141 121 80
-9.012390 -5.799589 120.770454 54 53 32
-3.945383 10.600115 115.290368 209 188 127
-5.614772 2.051403 118.604457 57 42 26
-5.614772 2.051403 118.604457 57 42 26
-1.365864 14.814065 114.463532 50 45 12
-5.861489 -0.681369 119.790184 60 54 49
-5.861489 -0.681369 119.790184 60 54 49
-4.151556 15.086676 113.146853 255 255 251
-0.791481 18.188216 113.153195 190 191 147
-0.703692 19.566864 112.545359 52 40 6
-0.691867 19.878109 112.432003 40 34 11
-1.245849 17.719021 113.209200 158 149 105
-4.777836 -9.850258 124.671233 139 132 99
-5.123981 -11.516126 125.312388 255 254 255
-1.752601 15.329190 114.169765 54 42 32
-1.874603 14.882417 114.341378 144 136 83
-2.715816 13.215168 114.774024 58 48 31
-0.704442 19.647746 112.640119 97 99 70
-4.837147 -12.659322 126.094007 255 255 241
-4.837147 -12.659322 126.094007 255 255 241
-4.707851 -9.294309 124.581516 253 255 254
-5.277146 3.092884 118.581843 106 87 50
-4.775719 -8.180751 124.109793 153 141 99
-4.775719 -8.180751 124.109793 153 141 99
-5.081494 -11.427177 125.644171 80 70 63
-2.696483 13.073196 115.130115 183 161 113
-5.784930 -0.975095 120.469129 30 21 18
-0.829703 18.799420 113.310695 150 152 110
-5.842243 1.336127 119.394755 52 43 39
-5.641873 1.950080 119.226527 134 116 87
-3.805371 15.290795 113.726783 27 24 19
-13.827975 -11.900535 122.384775 177 171 134
-2.749025 13.839895 114.997375 174 158 112
-2.543808 14.208639 114.962351 47 34 18
-2.543808 14.208639 114.962351 47 34 18
-0.845469 20.379202 112.783492 43 40 19
-0.845469 20.379202 112.783492 43 40 19
-0.760730 20.432213 112.808979 43 40 19
-0.760730 20.432213 112.808979 43 40 19
-5.762767 1.928171 119.441617 65 52 38
-5.182285 -11.149433 125.890946 81 67 85
-5.377723 -11.134180 125.817335 254 254 254
97.577411 73.318869 135.987449 134 121 113
-2.512323 15.028371 114.755046 59 44 12
-1.492451 17.581379 113.989902 177 173 115
-4.922458 -11.757779 126.542318 86 77 34
-12.855731 -12.457117 123.503673 86 79 46
-3.656503 11.156871 116.231632 112 95 38
-6.169257 1.554206 119.717705 137 127 87
-6.169257 1.554206 119.717705 137 127 87
-3.632824 10.763513 116.456568 136 120 73
-3.632824 10.763513 116.456568 136 120 73
-5.633154 -1.436410 121.399271 174 158 82
-0.799652 20.413518 113.095093 146 150 85
-5.486862 3.280007 119.269001 156 141 95
-3.199095 12.602198 115.879917 155 142 74
-6.063474 1.917814 119.789290 44 32 28
-2.912318 15.933707 114.471519 59 57 39
-3.436484 11.916589 116.158259 59 44 18
2.379810 23.550266 113.138580 165 173 133
-3.551695 11.655548 116.314209 104 90 37
-1.878346 17.240249 114.369833 82 74 37
-1.878346 17.240249 114.369833 82 74 37
-5.857719 -0.210102 120.986760 98 88 78
-3.303719 12.800322 115.911138 81 66 17
-6.479669 -2.852371 122.159266 90 81 43
2.139628 23.710902 113.157272 53 62 49
-1.508452 18.047851 114.347839 149 146 91
-0.208233 28.403780 109.972000 152 154 155
-2.901067 14.092848 115.669346 182 170 112
-5.666303 3.622464 119.500208 49 34 18
-3.189815 15.829262 114.784372 26 23 15
-0.331984 28.645104 109.912479 165 161 160
-5.677866 3.565035 119.649613 154 134 87
-3.004604 15.354750 115.240061 140 124 87
-4.889866 5.354640 119.240344 172 164 94
0.618944 25.885460 111.749172 107 107 67
-5.915372 3.398801 119.793236 55 43 19
-3.247263 13.338444 116.167080 179 156 88
-3.247263 13.338444 116.167080 179 156 88
-3.516693 12.251361 116.597342 178 164 98
-3.516693 12.251361 116.597342 178 164 98
-3.108343 14.779983 115.588117 139 131 84
-7.949970 -5.743874 123.385429 193 182 132
0.496134 26.057863 111.720729 136 129 86
-5.981895 3.424300 119.905019 112 107 86
-3.457116 13.756351 116.051424 50 38 26
-3.871594 12.782863 116.359746 149 133 87
-0.555628 28.574595 110.210359 76 75 79
-3.994663 11.683641 116.906440 51 35 0
-6.368655 -1.413997 122.195387 144 137 80
-7.389202 -4.445794 123.248839 143 131 95
-1.617608 17.954157 114.985156 195 187 120
-6.907689 -3.427716 123.045588 149 139 79
-6.002043 -0.638033 122.104073 126 110 63
-4.071210 9.934913 117.849910 151 139 111
-3.824317 13.076083 116.445756 68 52 23
-6.415800 -1.672952 122.483504 148 138 90
-1.747632 18.080196 115.001512 176 175 107
-7.099837 -3.646507 123.237896 140 123 72
-4.075220 10.791756 117.582119 128 114 85
-6.136470 -0.516874 122.188973 134 119 73
-6.393789 -0.843407 122.244298 39 24 5
-3.425367 15.242267 115.759230 82 67 58
-0.801682 29.458833 110.056937 186 183 179
-5.318297 5.589021 119.673514 148 137 87
-3.843260 13.567668 116.463017 194 173 105
-3.843260 13.567668 116.463017 194 173 105
-11.072035 -14.457753 126.956809 162 153 115
-3.598678 14.861664 115.961146 159 139 92
-1.738049 18.270591 115.139031 61 59 28
-6.278658 1.279145 121.500266 94 87 68
-4.066052 12.736742 116.921651 110 90 32
114.504778 86.092144 137.822819 33 31 21
-5.347724 5.959410 119.659507 155 143 89
-4.208998 11.676192 117.376888 184 163 101
-4.208998 11.676192 117.376888 184 163 101
-6.489299 -1.551383 122.846317 27 22 13
-4.305284 11.992452 117.236638 73 52 7
-6.580219 -2.014888 123.128569 135 120 74
-7.001883 -3.174878 123.520029 127 111 68
-1.816458 18.202351 115.360928 165 170 109
-4.310821 11.329097 117.657161 85 74 30
-4.358850 13.949543 116.404140 171 153 90
-6.285999 1.391413 121.676922 106 92 69
-8.768860 27.736476 107.923675 101 100 102
-6.427049 1.432550 121.605718 101 89 71
-3.896858 14.626196 116.295266 52 44 4
-3.896858 14.626196 116.295266 52 44 4
-1.681936 18.990378 115.171707 151 152 110
-8.049747 -13.520056 128.313470 75 75 51
-1.052500 32.359606 109.033620 131 129 128
-6.326286 1.646961 121.743715 39 28 14
-4.525259 13.315924 116.853440 101 89 31
-4.023756 16.449541 115.599287 50 38 36
-4.694196 11.143038 117.905927 174 161 85
-3.915943 16.271515 115.797007 58 46 42
-1.704565 18.989326 115.400875 48 40 33
-2.113166 18.270664 115.589106 161 167 114
-4.539543 12.272598 117.505026 168 158 88
-6.399907 5.608205 120.041716 139 123 86
-6.780800 -1.220617 123.284447 77 70 53
-6.651935 5.872795 119.899249 140 125 86
-4.931581 12.327098 117.486203 105 100 39
-5.237679 12.461562 117.409146 58 42 13
1.599103 25.805292 113.714194 129 131 71
-4.201166 16.469663 115.890777 136 118 89
-4.201166 16.469663 115.890777 136 118 89
-4.516861 29.720297 109.362721 101 100 102
-4.516861 29.720297 109.362721 101 100 102
-6.837586 2.105019 121.875989 76 73 58
-4.262121 -1.853684 125.075376 186 173 147
-1.743692 19.253403 115.833724 41 37 36
-6.886224 -0.124260 123.266625 67 58 48
-4.986058 14.891136 116.718781 57 41 18
-6.856356 1.627843 122.619712 35 27 14
-6.856356 1.627843 122.619712 35 27 14
0.309890 26.909071 113.205636 142 136 99
-1.174825 31.272200 110.496700 101 100 102
-1.234575 32.910782 109.700549 159 153 146
-15.401028 -31.796911 135.682523 116 104 70
-15.784860 -31.569353 135.491049 105 91 79
-4.037678 -4.060815 126.774597 47 41 30
-7.628629 -14.688778 130.548072 181 160 92
-6.043259 14.989145 116.678834 91 86 55
-5.857063 14.990574 116.933274 91 76 44
-7.118275 2.126263 122.787058 72 67 58
-7.337428 1.804621 122.945714 74 65 55
-4.170510 -0.331397 125.261772 85 74 54
-3.230266 -6.577413 128.726232 62 65 69
-4.400996 -0.082472 125.089633 19 17 16
-3.979384 -3.800965 127.103508 35 32 28
1.391194 25.579771 114.806044 133 138 107
-2.902051 -5.874131 128.609371 181 168 116
-0.626695 29.445800 112.141728 77 78 68
-4.373701 -0.119566 125.266540 19 19 13
-2.027891 19.414909 116.595888 137 142 81
-3.866094 -2.287869 126.600420 58 53 44
-2.544307 -4.442612 128.254068 146 147 113
-3.856124 -3.539922 127.298284 83 81 70
-3.771939 -3.611968 127.455187 32 26 19
-1.988925 19.759870 116.728163 65 69 34
-1.988925 19.759870 116.728163 65 69 34
-3.683469 -2.003576 126.840532 68 63 54
-4.140491 -3.526366 127.536488 17 15 14
-0.387983 44.634965 105.204511 192 187 189
-6.620299 14.670748 117.659748 255 252 245
-3.487284 -6.115444 129.190075 184 165 114
-3.256772 -5.429280 128.980136 180 160 102
-6.660654 14.990532 117.582178 108 96 78
-4.104801 -3.400835 127.758145 99 99 81
-10.228763 10.961569 118.281043 255 255 255
-3.647301 -3.436280 127.999079 101 100 86
-0.715926 30.105618 112.506044 166 164 146
-2.132676 19.890168 117.056346 72 65 50
-4.350341 -11.999068 132.086384 157 142 96
-4.110667 -3.147103 127.793992 36 35 21
-3.774085 -1.605918 127.172422 46 39 36
-3.420770 -0.628074 126.851010 169 163 126
-4.118291 0.370207 126.153636 126 126 108
-14.035068 -30.784544 137.792790 131 113 48
-4.974730 -10.693587 131.343329 140 123 72
-15.437157 -30.019411 136.906278 86 79 60
-4.332012 -3.241865 127.922142 77 69 62
-4.045355 -2.261197 127.557027 147 133 91
1.026526 25.890416 115.542185 117 121 109
-4.488328 -12.961656 132.753742 173 158 112
-4.230278 -2.493509 127.674389 137 121 68
-15.617743 4.366535 119.935179 83 68 42
0.010738 27.488619 114.510155 44 36 7
-5.471928 -8.197232 130.212462 93 85 62
-5.471928 -8.197232 130.212462 93 85 62
-4.487376 -2.282033 127.645063 140 127 95
-4.804531 0.185714 126.315320 26 23 18
0.077391 29.131666 113.868284 93 96 94
-15.111390 -29.962844 137.505949 98 91 58
-14.128686 -30.540824 138.195527 120 106 57
1.009270 26.956934 115.435159 140 141 109
-0.982833 30.350021 113.040507 165 161 132
-0.525427 45.164692 105.805767 115 107 107
-1.635518 32.405996 111.796534 89 89 83
-1.635518 32.405996 111.796534 89 89 83
-0.004381 27.747214 114.761770 133 130 86
-4.777076 -1.036190 127.407777 42 36 31
-4.406724 -10.624091 132.395613 139 120 69
1.787977 29.800850 114.530540 93 93 81
-0.568310 45.530155 105.772960 137 132 133
-0.568310 45.530155 105.772960 137 132 133
-0.599019 45.215410 105.949521 117 111 112
-15.319709 -29.209572 137.652099 36 28 21
-1.283832 31.085271 112.791765 89 89 77
-1.283832 31.085271 112.791765 89 89 77
-16.695160 6.211104 119.462204 255 255 255
-5.284201 -7.014740 130.478716 105 98 81
-5.284201 -7.014740 130.478716 105 98 81
-0.563625 45.435414 105.978060 121 116 118
-16.194299 6.520485 119.567382 255 255 255
-15.920947 6.413065 119.755483 255 255 255
-1.324275 31.219319 112.864792 171 172 162
-3.664157 -12.952919 134.188056 98 82 39
-16.013299 6.134215 119.902635 72 65 46
-1.205830 23.843192 116.760981 144 149 128
1.557503 25.670287 116.894162 42 44 38
-1.542455 32.690001 112.230885 86 87 83
-3.239641 -13.885882 135.071743 99 85 36
-12.993681 14.247063 117.224348 76 68 55
-1.428489 31.244114 113.127756 92 92 80
-0.646361 45.428824 106.306624 141 133 134
-14.975506 11.018690 118.288839 255 254 255
-3.860048 -8.816043 132.509577 176 156 109
-0.141449 29.019099 114.928126 89 88 50
-3.335898 -13.383384 135.195887 89 70 37
-15.222627 6.924714 120.496964 56 50 27
-15.222627 6.924714 120.496964 56 50 27
-4.104962 -7.872828 132.176495 139 125 73
-14.471105 8.953644 119.870377 82 68 45
-3.274131 -13.132219 135.316646 147 130 87
-3.274131 -13.132219 135.316646 147 130 87
-0.122335 29.131502 115.100074 107 104 66
-14.357539 12.990326 117.936778 120 114 43
-3.811259 -16.285934 136.737537 114 104 50
-5.940038 -0.125940 127.784848 119 114 81
-3.044223 -14.528219 136.350453 64 51 13
-5.853940 0.395976 127.770364 154 150 109
-5.853940 0.395976 127.770364 154 150 109
-8.116671 2.491669 125.868165 78 66 56
-1.532211 31.206307 113.768542 110 112 93
-4.477217 -6.879284 132.009768 55 51 40
-16.617744 4.483667 121.843076 25 20 21
-13.307455 14.308682 118.083847 90 70 39
-1.963917 33.036026 112.811375 164 166 160
-0.209205 28.908560 115.569961 161 158 103
-13.977860 12.805076 118.679416 84 69 36
-13.240820 13.705230 118.500817 170 154 107
-13.240820 13.705230 118.500817 170 154 107
-5.982327 0.767635 127.847087 147 141 98
-13.597086 14.207856 118.212092 70 50 25
-6.183112 0.471837 127.957654 40 35 26
-2.990928 -14.732797 136.895967 83 69 11
-5.867718 1.131322 127.758515 47 37 30
-14.024177 8.916106 120.783949 52 39 17
-4.450620 -6.868947 132.403111 100 98 63
-1.591997 32.809708 113.364279 108 113 111
-4.841993 -6.816032 132.443321 40 32 25
-7.934692 4.951073 125.313544 81 72 45
-7.934692 4.951073 125.313544 81 72 45
-6.067724 1.530237 127.761841 48 41 24
-4.726704 -6.157090 132.184219 97 93 69
-13.254954 14.112037 118.758452 37 29 12
-1.719566 31.787458 113.975954 161 157 132
-14.159970 8.354080 121.384394 90 87 73
-13.174044 14.314434 118.709660 140 122 91
-13.629553 11.266647 120.113194 103 89 60
-3.238877 -15.181948 137.479925 155 144 92
0.636731 27.764666 116.961074 132 136 111
-13.526453 13.205048 119.244552 104 89 56
-13.526453 13.205048 119.244552 104 89 56
-15.066893 -4.370547 127.704358 21 19 18
-4.867718 -9.956314 134.309161 95 86 42
-5.070789 -6.745192 132.609284 56 45 31
-13.406499 13.704488 119.268620 124 112 78
-13.897152 9.280654 121.385753 80 75 60
-12.957707 14.896725 118.907058 66 49 30
-0.197756 30.069181 115.783334 165 164 106
-4.859662 -6.040997 132.633877 110 99 71
-5.882855 3.120855 127.654922 34 26 19
-13.717765 10.382744 121.332502 42 35 18
-12.990282 15.263097 119.245815 45 35 18
-14.835066 -27.866092 140.820241 139 123 64
-14.835066 -27.866092 140.820241 139 123 64
-12.994295 14.984442 119.467354 128 116 82
-2.680370 21.084070 120.086169 148 159 121
-4.493366 -10.529995 135.787487 26 23 19
-6.091555 -7.494997 133.719003 55 52 38
-7.298020 7.208167 125.728738 150 131 104
-4.521790 -11.023460 136.228311 22 16 9
-4.521790 -11.023460 136.228311 22 16 9
-6.094575 0.811880 129.628587 153 141 117
-6.915314 -3.153955 131.417644 90 92 73
-6.113449 -7.926705 134.218967 151 137 95
-7.396766 7.904388 125.596631 34 26 26
-7.384457 7.899505 125.604403 34 26 26
-13.484019 14.242436 120.201385 30 24 19
-6.359953 -7.751316 134.183216 131 115 62
-13.855627 11.433531 121.569800 35 27 14
-6.271926 4.523319 127.872014 161 145 132
-6.264908 -1.319087 130.913544 23 18 19
0.461548 28.307426 117.966616 116 119 104
-4.492649 -10.893036 136.591232 63 52 14
-13.962021 11.606117 121.559560 71 61 43
1.159882 26.744494 119.089186 147 145 127
-6.389674 -3.584571 132.198560 19 11 12
-13.890143 11.604554 121.665156 86 78 61
-0.542409 30.067524 116.844845 114 107 68
-0.575474 29.236794 117.266130 133 124 74
-6.977135 -7.971033 134.359694 96 85 58
-4.249632 -15.373497 139.182007 32 18 12
-6.439898 1.253128 129.767036 173 164 126
-15.324700 -27.123526 141.406763 90 65 23
-6.382120 2.110062 129.424000 77 71 58
-0.459808 30.565897 116.736519 137 139 93
-0.459808 30.565897 116.736519 137 139 93
-4.228700 -12.989642 138.070166 109 94 45
-7.102677 -7.341450 134.135008 79 72 47
-6.440765 -3.341620 132.292330 70 72 60
-1.543516 31.807888 115.741789 172 164 135
-6.008101 -9.261280 135.536635 135 120 81
-6.008101 -9.261280 135.536635 135 120 81
-6.325103 -3.252621 132.304370 70 72 60
-0.238466 30.406678 116.981828 177 169 116
-13.566381 15.141606 120.230722 114 107 90
-7.240772 0.787340 129.935110 21 20 10
-6.534322 -1.822880 131.746638 175 166 109
-0.435234 30.699283 116.950607 148 152 100
-4.458361 -12.454819 138.104951 89 70 25
-7.705767 -9.094319 135.270417 53 43 25
-6.940313 -0.831701 131.314373 108 100 70
-6.214947 -4.180069 133.367801 23 20 16
-7.751455 -7.445176 134.558976 56 50 37
-7.447972 7.241064 126.998019 18 13 10
-6.753303 2.100150 129.948151 55 48 31
-1.649576 32.011852 116.120529 170 166 137
0.358224 28.026471 118.939424 108 110 98
-7.075047 5.329746 128.244305 176 161 158
-6.847009 -1.633746 131.993639 103 108 109
-7.869886 -7.281894 134.627581 114 115 81
-7.354222 7.574932 127.074647 101 88 62
-7.354222 7.574932 127.074647 101 88 62
-7.255427 9.205516 126.264882 62 60 50
-15.867442 -25.232580 141.355944 82 70 42
0.375873 27.895525 119.226778 132 135 126
-16.047810 -25.890043 141.811061 71 61 27
-0.365958 30.701476 117.557085 182 168 119
-7.694232 7.268293 127.323496 17 10 7
0.884098 27.033675 119.991875 131 128 107
0.116420 28.179821 119.277477 116 117 107
-7.741991 4.970085 128.846192 32 28 23
-0.694486 30.607006 117.823398 119 113 72
-6.339612 -4.114540 134.186232 52 46 33
-6.363211 -4.456547 134.374225 44 33 29
-7.513016 -0.458940 131.881475 42 38 27
-0.839499 51.841229 106.637788 144 141 137
-9.681803 -17.940301 140.376818 188 174 125
0.160296 28.862900 119.196451 126 125 115
-7.675084 4.699661 129.305959 119 119 101
-7.873684 5.978799 128.637969 107 120 104
-2.478570 24.595414 120.676708 90 97 36
-6.611153 -5.740276 135.344529 176 159 102
-1.888495 32.386437 116.893280 160 151 83
-1.421937 46.052808 109.969616 147 142 133
-7.120858 -6.171272 135.787857 118 105 67
-9.102052 -15.209675 140.045309 153 133 68
-7.999228 -7.891808 136.720979 122 107 68
-19.152734 13.963178 121.426392 37 28 19
-7.835390 -7.278912 136.511481 43 31 25
-9.369908 0.698331 131.777239 94 87 68
-17.276338 -24.455823 142.512059 127 105 53
-1.949383 32.492417 117.407429 86 82 29
-7.475749 4.004323 130.807376 96 97 88
-8.758064 1.677252 131.626439 33 25 25
-0.782400 31.248796 118.660176 157 144 100
-1.627639 32.551757 117.817199 81 81 45
-8.564041 -1.653365 133.785236 23 18 15
-8.095036 4.716796 130.602300 98 90 60
-8.016024 3.920439 131.135893 35 30 27
-1.968907 33.289412 117.432785 112 103 53
-8.110413 5.593761 130.280828 50 40 23
-9.282885 -0.674827 133.262372 155 133 85
-9.433300 -0.760625 133.339345 172 148 106
-9.937876 -3.016935 134.443498 51 36 10
-17.687516 11.573073 124.133682 42 33 24
-18.636459 -22.974521 142.339003 131 120 52
-7.990381 3.743292 131.517828 43 38 37
-8.142502 6.047696 130.236316 43 35 28
-9.541743 -1.263517 133.710980 74 58 29
-2.030945 32.815310 117.974281 88 81 38
-10.196222 -3.179309 134.649038 194 180 127
-9.294116 -0.011821 133.251560 55 40 14
-8.754570 2.230016 132.275701 87 74 30
-9.628383 -1.138090 133.804417 190 170 122
-9.214905 0.457176 133.100390 62 48 20
-9.080915 1.894864 132.540560 172 159 107
-9.080915 1.894864 132.540560 172 159 107
-2.008741 32.765231 118.329072 76 74 40
-16.836227 13.576208 123.853123 40 33 16
-17.754549 12.340403 124.225247 50 34 11
-9.574116 1.068564 133.021176 73 56 35
-9.200504 3.035093 132.120919 58 42 35
-9.200504 3.035093 132.120919 58 42 35
-8.926069 3.879004 131.766343 195 177 114
-9.126455 3.384387 132.009721 94 82 58
-3.391812 23.236296 123.179007 163 170 113
-17.942536 12.284501 124.382520 169 150 107
-17.942536 12.284501 124.382520 169 150 107
-0.887699 52.686065 108.126616 121 124 122
-9.604448 2.420157 132.463217 194 177 121
-1.976852 32.903099 118.555558 76 73 42
-19.170958 14.297630 123.178053 46 41 32
-9.224418 5.288440 131.259251 136 122 93
-3.399758 23.198272 123.477483 67 63 10
-9.101904 5.518804 131.239736 102 88 66
-10.030703 2.667470 132.492542 108 97 47
-16.976795 13.466342 124.529386 102 91 69
-2.466664 35.085642 117.491233 68 70 40
-9.062634 6.064560 131.110477 91 82 68
-1.114771 52.806598 108.377814 128 133 132
-1.114771 52.806598 108.377814 128 133 132
-3.486844 23.116197 123.780525 152 162 115
-12.444641 -11.203150 139.556587 189 174 118
-16.804199 13.859074 124.638796 50 48 37
-3.390869 23.156163 123.967600 60 60 36
-17.138581 15.645371 123.710132 134 130 112
46.085331 50.122529 125.072825 90 95 94
46.085331 50.122529 125.072825 90 95 94
-2.353512 33.738238 118.814361 165 159 114
92.711836 71.184123 135.599732 74 60 48
92.711836 71.184123 135.599732 74 60 48
-16.861893 -9.520178 137.916732 41 32 29
-14.415361 -10.438014 139.217496 173 160 98
-16.940655 -10.122813 138.299239 51 43 36
-3.584702 23.522687 124.237764 74 69 38
-16.968834 -9.584036 138.124561 48 37 33
-11.606850 8.219436 130.096328 201 190 146
-11.479063 8.669410 129.923308 187 181 138
-16.994202 -8.784842 137.744093 122 114 67
-16.903482 -3.622202 134.995985 56 39 26
-11.788801 8.582876 130.029762 58 47 33
-15.958527 0.796738 132.988644 38 34 29
-2.474629 34.070584 119.014204 100 98 80
-2.474629 34.070584 119.014204 100 98 80
-2.096445 33.427796 119.499564 62 58 29
-2.332664 33.970508 119.133008 169 165 124
-12.680347 6.641744 130.865192 172 158 110
-12.003908 8.714132 130.018377 54 44 27
-12.566429 7.307042 130.621123 63 52 30
-17.608312 -10.094188 138.610101 90 70 29
-17.720245 -10.598284 138.885474 188 166 100
-17.720245 -10.598284 138.885474 188 166 100
-1.306478 48.924431 111.457014 155 149 106
-3.603844 23.730443 124.562323 170 172 113
-16.247304 0.719365 133.359516 59 51 38
-15.936425 2.126057 132.690096 137 129 106
-0.897142 54.199052 108.803916 99 101 109
-0.897142 54.199052 108.803916 99 101 109
-14.179130 5.923846 131.230903 44 35 31
-14.179130 5.923846 131.230903 44 35 31
-12.566102 8.352236 130.406308 49 41 34
-17.472810 -8.675231 138.359499 47 36 16
-12.600005 8.994305 130.185735 134 117 54
-17.616919 -1.772189 134.564912 40 35 32
-16.055858 3.048626 132.547116 61 48 34
-1.611793 31.103343 121.600258 95 91 72
-2.482697 34.165567 119.675314 165 162 157
-1.250783 33.638301 120.341218 105 106 80
-2.453389 34.432369 119.558430 103 106 104
-15.790272 4.530948 132.015550 118 105 61
-19.438078 -8.298961 137.980723 28 21 18
-2.831876 26.587051 123.842978 111 114 58
-0.829323 54.909742 108.853316 152 162 162
-2.247904 39.409104 116.968632 189 186 178
-0.959903 54.194635 109.219432 133 135 135
-17.892261 0.030347 133.921897 151 133 92
-2.869572 26.749527 123.777699 119 125 72
-2.869572 26.749527 123.777699 119 125 72
-12.810308 9.657150 130.281949 181 171 107
-12.908548 9.729821 130.282819 176 167 99
-2.621614 33.707082 120.215178 63 63 57
-0.876637 54.987437 108.998275 169 173 174
-1.416233 32.539478 121.232867 161 146 113
47.592872 38.786042 132.815909 255 255 217
-15.929797 6.270678 131.453240 158 141 98
-15.922771 6.596197 131.340218 185 166 131
-1.399187 33.187211 121.069551 31 27 16
-2.523565 34.144014 120.244443 145 142 137
-0.614274 30.186713 123.052430 117 116 106
-18.285213 -9.765711 139.892960 255 255 255
-0.393649 30.107665 123.293900 145 146 142
-17.171547 5.510002 131.944191 49 32 19
-17.350382 4.612288 132.397938 158 134 92
-2.514588 34.281594 120.434701 140 141 137
-2.514588 34.281594 120.434701 140 141 137
-17.372483 4.943167 132.326591 159 138 93
-2.456153 35.357907 119.982958 96 97 88
-0.618935 55.373919 109.413087 100 109 112
-2.445503 34.313598 120.658994 56 59 57
-2.445503 34.313598 120.658994 56 59 57
-1.550324 33.788770 121.243107 148 150 128
-0.340563 31.257260 123.043668 47 47 41
-17.227641 7.160096 131.513071 155 129 82
-3.775674 24.837464 125.674212 186 178 171
-17.320332 7.275967 131.546783 72 51 29
-16.512947 8.202884 131.359279 75 65 55
-2.276999 34.048191 121.372581 40 42 43
-1.927799 39.077720 118.687379 173 173 173
-0.313098 56.898046 109.278381 80 82 76
-2.015019 36.867598 120.173156 71 74 82
-1.783979 39.210007 118.941343 178 176 176
-16.734575 11.448134 130.212748 80 67 53
-1.968963 37.834516 119.668508 146 143 145
-1.892686 38.344488 119.430351 159 158 160
-0.905019 51.463062 112.440324 86 90 95
-0.883807 50.809437 112.900424 90 92 100
-1.924967 39.872327 118.747830 173 172 174
-2.275250 37.278479 120.119643 114 116 127
-1.898119 40.248162 118.585479 172 171 175
-2.138689 37.595525 120.017874 61 63 73
-1.743445 35.024816 121.636832 167 165 164
-1.333587 33.857670 122.458351 57 56 58
-0.624573 52.833986 111.983621 147 148 152
-2.497840 39.244631 119.207227 54 61 70
-0.594130 52.567220 112.249398 108 113 116
-2.512511 38.365516 119.716334 122 122 128
-2.221111 40.180007 118.786740 170 174 185
-1.358258 35.510135 121.684790 95 94 96
-0.232041 56.182110 110.367858 138 136 136
-2.420505 39.993683 118.896008 53 54 58
-18.715741 9.641953 131.424606 255 255 255
-1.876903 42.658463 117.560995 115 118 132
-1.883240 42.937189 117.445230 111 117 128
-2.132704 36.481634 121.018624 109 116 131
-1.596849 33.829564 122.741795 66 65 67
-1.309980 35.646653 121.812451 172 170 170
-1.406740 36.331007 121.400893 16 20 25
-2.278406 40.162644 119.036055 94 99 108
-2.042095 36.757901 121.063721 134 140 153
0.043601 56.421822 110.553646 125 127 128
-1.715432 44.779727 116.643238 94 100 105
-2.602302 39.887094 119.244790 39 43 54
-1.341037 35.513738 122.078466 132 131 135
-1.451152 34.238639 122.800994 126 126 126
-2.537370 40.394825 119.024312 125 126 130
0.021173 55.701756 111.094546 118 118 118
-1.227451 46.780583 115.818489 169 170 174
-2.134895 38.663122 120.220661 30 30 36
-2.134895 38.663122 120.220661 30 30 36
-2.068463 38.697696 120.231152 30 30 36
-2.084104 43.759742 117.388511 113 122 136
-0.242122 30.306953 125.574219 31 32 30
-2.525830 40.572265 119.119573 82 86 87
-2.243439 43.025535 117.813766 94 102 119
0.302912 56.917953 110.647345 152 153 133
-1.321665 45.745653 116.557360 117 120 128
-2.175428 42.913279 117.945075 78 84 95
-2.034008 44.416553 117.197883 90 101 109
-1.933229 45.186043 116.797507 99 110 118
-0.730417 31.111512 125.149024 125 123 122
-0.730417 31.111512 125.149024 125 123 122
-2.142905 41.655248 118.785858 160 163 168
-2.591885 39.842716 119.716728 182 180 179
-2.437541 38.234782 120.718884 136 138 146
-2.408291 40.517345 119.464803 20 26 39
-1.400684 36.383304 122.139871 130 136 147
-1.379893 34.886998 123.032701 88 86 86
-1.431722 47.101566 116.117084 162 167 176
-1.584548 47.233111 116.011357 42 50 67
-1.584548 47.233111 116.011357 42 50 67
-1.703333 34.203392 123.430073 129 130 126
-1.703333 34.203392 123.430073 129 130 126
-1.286369 36.038473 122.537923 144 149 148
-1.585772 35.249957 122.946095 142 143 141
-2.714310 39.339826 120.321345 53 59 66
-1.425567 35.700721 122.756314 163 162 166
-1.692578 47.659084 115.867209 156 162 167
-1.657328 47.650930 115.884840 156 162 167
-2.472078 40.423816 119.793260 71 72 70
-1.587797 47.283328 116.159976 117 128 142
-2.782057 40.864360 119.499576 171 170 174
-1.923824 36.459664 122.296536 35 35 41
-1.923824 36.459664 122.296536 35 35 41
-1.447678 46.706596 116.589189 24 33 47
-2.944256 39.015234 120.620871 42 48 55
-1.669057 34.319380 123.655009 137 137 137
-2.591219 40.567115 119.839644 92 93 97
-1.830577 43.914682 118.180215 189 187 193
-1.931934 36.110207 122.685254 53 56 54
-1.285433 46.380320 117.011750 151 147 152
-1.791960 35.207820 123.295748 52 51 53
1.006432 57.653606 111.205506 84 89 87
-2.440638 37.586546 121.800566 53 56 60
-2.411985 41.881791 119.358408 87 86 88
-2.823848 40.691137 119.939005 58 58 64
-15.944432 14.607759 131.373727 132 119 57
-1.816564 35.526228 123.281252 67 69 70
-1.789626 35.439572 123.378193 119 119 119
-1.591242 46.733579 116.984332 17 21 39
-2.645712 41.998941 119.444418 35 34 43
-1.901030 36.247185 122.947109 68 69 65
-1.796398 34.262246 124.115968 183 181 180
-1.632752 46.865773 116.967285 112 123 131
-1.921042 36.318901 122.960067 117 119 113
-2.063501 35.948896 123.136806 76 74 66
-1.796715 46.975908 116.916740 9 17 24
-1.542018 45.732948 117.730749 83 80 89
-1.911120 48.343995 116.149843 104 113 133
-4.190705 39.417729 120.678127 44 47 52
-4.190705 39.417729 120.678127 44 47 52
-2.066241 44.539383 118.317342 163 163 169
-1.789359 35.191363 123.777354 141 137 136
-1.931269 47.320509 116.805816 132 133 137
-1.737842 34.708250 124.117887 150 145 146
-1.881536 35.593340 123.571467 89 87 87
-1.944045 47.465315 116.752338 146 146 152
-1.483560 46.303493 117.556250 170 164 169
-1.931591 47.117275 116.976953 137 145 152
-1.808851 48.105058 116.459525 45 58 84
-1.980212 36.170349 123.305082 152 154 148
-1.680299 46.662810 117.400074 132 139 148
-2.162787 36.899826 122.924280 144 141 143
-1.948890 35.381675 123.895442 140 138 138
-2.067135 47.170171 117.123199 17 20 28
-1.685493 46.634415 117.603302 123 127 138
-2.590018 48.524442 116.317213 159 164 173
-2.065676 35.602620 123.945463 147 145 145
1.025956 57.295728 112.250125 182 180 179
-2.221851 47.271764 117.199576 106 112 119
-1.798343 46.704507 117.676759 70 78 91
-2.311514 36.435381 123.515105 171 170 166
-0.971165 31.863242 126.513004 144 142 141
-2.737129 36.842266 123.205078 136 140 145
-1.141088 51.121074 115.387440 134 139 142
-2.921835 47.747216 116.895783 72 81 84
-2.256519 35.595086 124.140763 144 142 141
-3.121358 48.166481 116.652620 78 84 89
-2.018382 46.824044 117.734826 121 131 149
-2.626251 35.963345 123.905087 132 132 132
-2.195920 46.907541 117.677116 19 15 20
-2.195920 46.907541 117.677116 19 15 20
-21.089177 35.345396 119.583368 138 130 70
-21.972287 37.261906 118.318033 144 149 158
